# .PCD v0.7 - Point Cloud Data file format
VERSION 0.7
FIELDS x y z
SIZE 8 8 8
TYPE F F F
COUNT 1 1 1
WIDTH 1237
HEIGHT 1
VIEWPOINT 0 0 0 1 0 0 0
POINTS 1237
DATA ascii
8.46992656 -37.09729691 -208.8756869 
17.70885061 -33.43576008 -228.855717 
13.25192486 -42.02502929 -217.8616386 
16.87443284 -31.25598223 -225.6395693 
6.752863536 -27.56001355 -204.5882367 
7.521388081 -36.28445797 -207.3530807 
15.72095684 -27.69673833 -210.8528673 
20.27709031 -43.81069623 -231.6901619 
5.966530025 -38.89087397 -207.3220259 
15.12005743 -38.05965018 -222.3673784 
4.730399981 -40.21149691 -200.215033 
16.8542412 -27.62815943 -215.8166486 
20.27655302 -29.71227125 -220.8908711 
13.43142342 -27.14490285 -206.2291334 
25.80977518 -39.185119 -243.364429 
5.186940589 -26.59090267 -203.8823002 
23.03406591 -45.97855078 -236.4621894 
10.78226234 -32.58696853 -213.1994791 
12.19412526 -30.2558875 -217.5323159 
15.17891401 -36.94573178 -222.6167916 
7.39650067 -32.05004143 -207.5349039 
28.46458831 -30.95047398 -234.9557214 
38.64476135 -44.22811658 -271.2947355 
11.12577222 -32.19794735 -214.4565304 
33.15524334 -32.61836658 -188.6566031 
6.413203605 -29.43225544 -205.6591973 
1.836315983 -30.52776211 -199.1175002 
8.266204321 -39.68879586 -208.0500277 
11.31089639 -33.15876748 -216.7627905 
2.760534776 -25.48466772 -199.4894905 
5.951798663 -38.56375439 -207.6876373 
8.669513667 -34.37217275 -209.5029832 
9.319974227 -26.51006081 -197.5403196 
3.227020049 -26.38922098 -201.8580593 
8.159962608 -40.35615945 -207.2277533 
8.426648191 -34.30275957 -209.1080105 
6.836851246 -29.55345897 -206.4492243 
8.198649177 -34.20372832 -208.5116989 
10.82413933 -32.17625263 -214.0129091 
8.386129444 -31.74474734 -209.3715178 
8.49070156 -36.85470233 -208.8619949 
9.802604155 -41.18713722 -211.2617939 
8.627914792 -42.84548491 -208.1528185 
4.542547713 -29.78574002 -204.4485128 
5.128374702 -31.41585814 -205.2221923 
7.56275349 -38.75139647 -207.0299023 
14.65389867 -47.40193133 -221.3016427 
9.630579414 -44.2843239 -209.4704938 
13.52817285 -31.87280439 -206.1740536 
9.266150064 -32.45683911 -210.9845592 
5.483669463 -35.47462415 -205.249827 
7.397429592 -33.21745863 -207.6511414 
11.00592277 -33.8896858 -213.9061856 
11.07476051 -38.81194445 -213.7421815 
13.93825438 -37.28802795 -220.4186894 
5.291021772 -30.41939285 -205.59504 
11.96993008 -40.57155164 -215.506686 
8.978720061 -43.57476288 -208.7447892 
8.096997647 -28.15305886 -209.4568625 
8.19436123 -29.44024273 -209.2819051 
5.876516434 -36.20741784 -206.1501425 
16.11652588 -29.69323554 -224.9644957 
16.59084964 -28.50583617 -213.0314069 
13.78894617 -34.29880392 -220.229072 
18.18388343 -29.23348303 -229.9332372 
15.86522414 -28.63163227 -224.9303309 
8.069471195 -37.52199695 -207.6457145 
17.81353137 -34.61629645 -228.487075 
13.28439931 -44.00073117 -217.4967545 
17.28253193 -31.36789262 -227.8419911 
18.13615681 -34.6000972 -228.8054194 
11.71396564 -32.93182968 -215.3759183 
16.77075488 -32.56274621 -226.5608852 
13.2999742 -26.86742056 -206.5546737 
11.61500197 -29.38549722 -216.7493381 
11.24865328 -28.39631209 -215.6857045 
16.78043984 -29.06352491 -226.0264047 
16.22794715 -30.82497805 -225.3094576 
7.476395733 -28.16873446 -207.6725938 
13.88592193 -28.77436088 -220.5278798 
3.555819897 -28.48749152 -199.7494813 
23.10144917 -33.15085263 -236.6104449 
27.13570744 -37.54655295 -247.1009096 
8.261160182 -28.14256332 -209.6479964 
28.40222248 -38.27663871 -248.9691946 
27.48698337 -46.94931593 -245.2326881 
30.27595545 -48.03130097 -251.8629978 
3.922013624 -27.15726072 -203.6130275 
29.90846605 -41.69877975 -252.3470231 
31.93308813 -43.62268359 -254.7727489 
10.58086845 -29.01597935 -214.0742468 
9.410559126 -26.39124404 -197.5190337 
8.810168942 -37.17909016 -208.9055468 
7.873610327 -41.16899044 -206.6527964 
8.683846758 -31.6278524 -210.7249763 
7.827076055 -39.32725577 -206.8816946 
9.778924512 -32.40227328 -212.6815979 
5.935106669 -26.1659875 -205.0204573 
7.999530476 -34.52160422 -207.9096871 
8.745744518 -29.28857743 -210.1737311 
8.544931478 -39.7532995 -208.599966 
13.04509756 -27.76633954 -206.7160752 
40.3098308 -30.12280871 -199.3762579 
7.252188368 -38.63732487 -206.8963539 
45.43239896 -31.71912348 -206.3393806 
45.08591637 -32.38954035 -202.1753816 
5.31104947 -36.65909825 -204.3935128 
5.824041944 -35.60633855 -206.3096701 
41.16231926 -32.46801361 -201.0092804 
16.66538638 -44.48970991 -223.7092904 
8.138244725 -29.0459072 -209.2549731 
9.562662333 -31.73165705 -211.787098 
16.25032593 -45.31037071 -223.2737745 
9.563379055 -41.00707751 -210.626411 
5.993466529 -29.31074072 -204.7306023 
3.817270005 -35.21062133 -200.775537 
5.481630066 -36.1083651 -205.3285497 
12.39169716 -38.61943397 -216.3087574 
11.00569157 -28.12036263 -215.4782296 
5.221614569 -32.70774784 -205.7226865 
8.330326261 -33.43819409 -209.2221209 
12.68825269 -44.19185024 -215.9670942 
18.62920339 -34.37133081 -230.391977 
14.44940009 -29.30239464 -221.437618 
12.80376368 -29.81286511 -219.2670658 
15.06182235 -31.03989636 -222.8340005 
14.27875062 -30.65917785 -221.4335064 
14.40781976 -28.68620379 -221.6743153 
10.80187722 -28.60007756 -214.6571054 
9.407567679 -36.9036197 -210.8137766 
15.19309163 -41.18616737 -221.9566361 
15.20761783 -34.18919622 -223.8218062 
16.6817438 -33.51090324 -225.8098847 
11.29018188 -28.71194053 -215.825048 
15.13587022 -28.60776115 -222.872298 
13.05680821 -33.23663515 -218.0853179 
9.109119573 -26.77659648 -197.5228506 
5.993210624 -39.82498239 -207.5573318 
16.16870903 -33.68029201 -225.2441053 
12.05574418 -34.20936446 -216.1484606 
15.23236911 -30.79393396 -222.1453949 
15.30955607 -30.36712249 -220.3736546 
13.42382342 -27.77682597 -206.6251353 
7.42312684 -27.33813804 -207.587727 
15.67473416 -28.16737045 -211.4176405 
13.2492718 -27.01636169 -206.6830978 
16.14177505 -30.48612505 -224.908954 
11.96943236 -29.2660777 -216.7113234 
20.17314683 -28.28000966 -220.6022811 
48.21600715 -36.34983524 -229.3186278 
23.68346322 -33.98922721 -239.7152802 
27.13575156 -40.48347642 -246.3743333 
27.98219348 -36.56597884 -248.7509574 
11.96382752 -29.76060967 -216.4146724 
13.0327059 -30.06982448 -218.7700695 
29.68471754 -32.35283142 -239.1534253 
40.94571818 -31.867744 -200.3915678 
9.043175093 -26.80950652 -197.5213599 
4.270432303 -29.88434653 -204.4018366 
9.53626191 -41.32692019 -210.3073575 
9.158592799 -27.24366683 -197.4261392 
9.645321568 -29.43841621 -212.363357 
13.51592427 -27.42941383 -206.3751456 
7.229132469 -29.6805926 -207.3427574 
5.429437612 -38.93984587 -207.8560041 
9.779411284 -28.67481309 -212.728705 
5.817848835 -34.8878149 -206.3005481 
6.517933894 -25.99421072 -206.1965376 
8.077289099 -37.49802321 -208.3770397 
41.10301676 -30.63855167 -200.4154918 
12.65199417 -30.12922418 -218.039031 
13.68895175 -31.19920967 -206.6533926 
12.52132822 -29.9358619 -218.8377265 
7.152370718 -34.82534287 -207.4675421 
5.913225723 -32.98132947 -207.5799171 
6.463908103 -28.50842142 -205.7227811 
6.554966097 -33.67172173 -208.0210622 
8.1562082 -40.49214359 -207.9770343 
9.977706417 -41.17291051 -211.5431044 
7.200919047 -28.0237649 -207.43165 
8.167627058 -36.51594409 -208.3521888 
7.774916566 -38.09144408 -206.7823599 
5.837997264 -29.28466658 -204.4958048 
40.62598417 -31.8516684 -199.5986143 
11.38556304 -38.86858637 -214.3480133 
18.13879504 -35.6780354 -228.1553006 
9.320431218 -29.95991854 -211.1749116 
40.33732881 -31.30227048 -200.4079119 
16.63948321 -35.36126292 -225.4832533 
4.330489244 -30.32093863 -204.2564898 
16.33993862 -39.71547549 -224.4332322 
13.98758829 -29.80710423 -220.8547265 
16.55158992 -35.86070752 -225.4511181 
15.06956422 -31.38356882 -222.7932416 
9.099502002 -37.36237534 -210.0250001 
11.64817409 -38.56037801 -214.9389136 
16.71866488 -28.49869996 -212.5811236 
22.55423452 -36.84280601 -237.5912164 
5.085439824 -30.37654781 -205.2793427 
8.702740363 -31.80112268 -210.6471887 
5.866351091 -36.74798294 -206.0403843 
8.880246312 -29.06764793 -209.3022922 
15.45678082 -36.38348278 -222.6764199 
23.58855685 -38.2747387 -239.5401793 
9.413717898 -38.23565126 -210.1887275 
9.629866754 -29.97051564 -211.7875306 
22.2570402 -30.31818825 -223.8660443 
19.94883273 -27.65109334 -220.7348232 
25.61414476 -35.77284381 -243.8684284 
9.281590906 -29.02506339 -211.2821537 
22.35211118 -29.95724381 -222.1283679 
8.023998203 -26.37475774 -208.6943653 
13.81717831 -37.48634194 -219.6529803 
15.99881185 -34.03034776 -224.2000477 
20.50457607 -36.57962142 -233.876674 
37.63858875 -38.82965229 -268.6957717 
44.6918714 -31.99600032 -204.5528723 
5.500531105 -32.92346832 -206.8279218 
12.70090005 -32.22232922 -218.4472008 
9.177963691 -27.18819626 -197.6405856 
42.8527851 -32.19097178 -202.7643824 
5.304745213 -32.82833812 -206.3224043 
9.206115921 -24.93769363 -197.611072 
9.136467549 -26.36471891 -197.4521845 
12.58388846 -31.52282686 -218.340864 
6.057432489 -28.63117472 -204.837822 
4.256843253 -27.83061385 -203.5369124 
13.21726503 -31.61181224 -219.2816227 
13.03474706 -32.98192338 -218.8056126 
13.04841381 -29.3194092 -219.1654779 
9.066013609 -27.31364406 -197.6917887 
7.616163945 -32.16039842 -207.8692953 
13.56108579 -31.72918492 -219.9931736 
12.43921917 -29.50136087 -218.1278874 
6.388838256 -29.2213176 -205.5605067 
5.467142716 -33.71999249 -207.2961024 
4.745634172 -28.59702033 -204.5741645 
7.878224592 -31.38675752 -208.9967109 
9.500020452 -40.01625965 -210.5146887 
42.40893783 -32.6575479 -200.9253039 
6.558468173 -33.9031233 -207.9284576 
10.6488514 -35.62154908 -213.4786843 
12.9877332 -31.60695282 -219.094779 
7.124211696 -33.78633071 -207.5719438 
5.526561475 -38.59032972 -205.0747945 
6.177471779 -37.15351337 -207.3702153 
8.933670628 -26.71808699 -197.6669347 
13.25989571 -29.672987 -218.4679676 
41.45692921 -32.26145416 -212.5685967 
7.413068544 -26.92011645 -207.6099771 
13.4089659 -27.02197487 -206.6548593 
7.378038383 -25.80628201 -207.7766913 
13.69503534 -37.89467744 -219.3056186 
11.34462991 -40.55935971 -214.4353636 
5.955191751 -33.52246357 -207.4780695 
12.02794363 -30.39714774 -215.61472 
43.13944401 -32.43358261 -202.3744014 
9.698731803 -26.41985024 -211.9472644 
6.608018987 -29.1667563 -205.5846408 
6.259525879 -33.02379572 -208.0233673 
13.50952356 -30.2543381 -220.0275764 
21.67752348 -47.41670367 -233.8721186 
13.74215908 -31.38223028 -219.3994609 
28.29637685 -46.7663145 -246.5196755 
22.35797984 -50.62810718 -236.3996624 
15.59258152 -46.07093831 -221.4527466 
23.32512896 -43.13756492 -237.6469062 
12.3865947 -28.00331033 -217.4639316 
8.455472891 -34.75552982 -209.0410308 
49.77701193 -38.40757586 -230.4231573 
26.97020296 -44.48160953 -245.5125964 
14.92599614 -44.17588388 -221.6490178 
5.728435411 -33.0280524 -206.8075282 
22.94628279 -43.38668963 -237.8130349 
11.70107107 -38.91517013 -214.9124779 
6.020056575 -27.05279414 -204.5045876 
23.28152328 -41.27458246 -238.2120578 
23.85487521 -40.57610673 -240.0110361 
7.240570881 -27.835532 -207.809201 
22.16056456 -38.71312977 -237.3474125 
11.31301559 -27.95578495 -216.1607564 
4.586313261 -28.57023922 -204.3313827 
28.32714556 -44.85853785 -248.3294468 
14.83658526 -42.97272124 -221.633941 
9.028244243 -34.15757257 -210.6265584 
49.20376247 -38.00349762 -227.2031308 
30.02752509 -43.69692572 -252.2415342 
5.716835774 -25.40251074 -204.5679876 
11.30533428 -29.2296805 -215.747776 
31.06606243 -38.25319652 -253.6953307 
23.00597326 -34.94295634 -238.7084083 
19.10953609 -46.33179434 -229.1199806 
74.76386429 -41.9927053 -284.4180315 
40.14837346 -37.58538604 -262.1717501 
10.8151457 -28.86718472 -214.6720535 
15.70298161 -36.23207596 -223.8162579 
10.85851211 -35.25904577 -213.999751 
8.931428639 -26.42067632 -197.6295575 
9.425045221 -26.66054064 -197.2912198 
7.92148788 -28.65446075 -209.0281438 
6.612310349 -29.50975261 -206.1401261 
12.42584589 -29.23535055 -218.2640873 
6.6434772 -28.85435883 -206.2986842 
11.06909431 -29.16020151 -215.2208386 
44.46280477 -32.0447046 -204.1190186 
43.19362787 -32.5125065 -204.1383859 
13.52073842 -31.08516759 -206.3767674 
13.40870012 -30.60229827 -219.3627805 
13.40774366 -28.01563926 -206.7431682 
13.06595035 -29.59237757 -219.2095515 
7.90414835 -28.91831687 -209.0159203 
7.089686445 -27.61380296 -207.4579726 
7.381434084 -29.24187913 -207.5698774 
10.98083888 -27.88218825 -215.4960677 
11.34321274 -29.92954332 -215.5964735 
41.37406383 -32.82105572 -212.2102481 
6.606689491 -28.57038717 -206.2074156 
7.654826709 -27.09962038 -207.699592 
8.470549552 -29.21383063 -210.1316957 
13.58396852 -30.55300788 -206.7871814 
13.09702761 -44.71687047 -217.2470523 
5.103942977 -29.92581166 -205.0344714 
9.94555339 -38.29571896 -213.0453777 
7.027947752 -28.95793107 -207.0427521 
8.644140125 -33.62095459 -209.3074876 
14.36103232 -35.00326299 -222.6445701 
9.246780576 -26.46767371 -197.4335353 
41.77786166 -33.1348667 -201.7296007 
13.60700349 -27.43703429 -209.725962 
15.07410223 -46.06911987 -221.5292991 
14.4275956 -31.91927061 -221.8712343 
7.886630733 -31.68761507 -208.616392 
7.925973331 -29.0922504 -208.5292875 
43.16510815 -31.49334082 -203.1585317 
14.78561597 -44.5593679 -222.4025736 
12.25221395 -32.75273104 -217.1760217 
42.67759216 -32.45865388 -202.8404072 
5.283539906 -28.56688791 -204.4639949 
13.32135623 -34.61862299 -218.916652 
9.044650378 -26.43223177 -197.6562081 
9.284163009 -26.38061637 -197.4898956 
43.06452682 -31.65719577 -202.6927544 
14.436197 -28.43341239 -221.9033983 
12.90488519 -28.19420983 -219.0491857 
6.566139121 -27.49137819 -206.3600027 
13.25053387 -41.66711105 -217.9692363 
8.995829146 -27.47354022 -211.1815911 
15.99973664 -40.0168806 -224.4612054 
11.6714331 -36.08979005 -216.4445742 
6.510987925 -28.74091054 -205.6458264 
19.30696881 -28.91760851 -219.8754636 
14.74358007 -41.87264332 -221.5067608 
48.902259 -36.12683423 -231.0306187 
6.190860336 -34.948282 -206.98844 
13.23813876 -29.35366696 -218.1118729 
13.52461928 -28.51341545 -221.4790606 
6.132050531 -27.32920473 -205.2883484 
48.60861308 -30.60829969 -224.5629104 
48.99179195 -29.3911959 -225.9949728 
15.55435674 -34.46238096 -223.4531589 
48.7728482 -36.67653445 -230.9988576 
11.97743 -29.58263234 -216.7881294 
22.89863468 -28.67121892 -224.103565 
29.77939339 -38.60794218 -252.7361919 
13.28926461 -27.78696621 -218.1857069 
92.86816744 -56.4909656 -283.0626631 
39.64790981 -49.05888003 -270.5343164 
38.80999485 -49.01482484 -270.4760848 
10.6218343 -29.69718978 -213.9583145 
11.28597872 -28.98592206 -215.7708693 
9.993435135 -29.10290911 -213.1856531 
13.25137557 -26.34877959 -206.4946343 
11.87031353 -33.16411634 -217.1683048 
10.74622937 -38.27277322 -213.1740666 
13.10630007 -38.51806219 -218.0013949 
14.22300456 -33.74347888 -222.2280457 
8.095830384 -28.65122338 -209.2273562 
10.23343522 -29.62774635 -213.7135226 
11.78207562 -32.35566341 -215.7169297 
11.08268592 -35.71906733 -214.3737133 
5.446750855 -34.73489166 -205.3874912 
11.36096498 -31.14592933 -215.4098173 
11.20924579 -34.52184051 -215.1535925 
13.76579642 -30.62432944 -219.8519147 
7.099363415 -29.3417669 -206.6536287 
13.1554847 -30.57665536 -219.0008133 
11.15841224 -32.03849768 -215.3823548 
11.0913359 -29.85460447 -215.0376792 
11.40381406 -31.27106109 -215.1277582 
12.90691246 -41.31062364 -216.8849394 
10.80032986 -29.11818053 -214.6712109 
49.05480005 -29.40992912 -225.2684753 
9.367544217 -27.26830292 -197.4474181 
19.63205144 -32.85774348 -231.3741302 
12.92472415 -30.61953031 -218.8877935 
22.19915565 -39.88809137 -237.3605544 
21.31420795 -36.89143732 -235.728142 
21.4215645 -43.08717187 -234.4361415 
21.30603532 -34.82436749 -235.875108 
22.7964484 -50.66649372 -236.3417376 
11.03572818 -28.95140008 -215.3763244 
18.32168531 -27.08276754 -217.0737365 
45.46026289 -31.61455944 -221.6101939 
20.44369621 -42.83670052 -232.5614119 
19.84251282 -37.51201255 -231.6540197 
13.42368945 -37.85793694 -218.8502806 
20.3928844 -35.46103374 -234.1034591 
11.07687026 -41.09351192 -213.1808323 
6.29908002 -33.46491486 -207.7917272 
23.00059027 -45.4200372 -236.49053 
40.22001152 -34.054776 -210.5837183 
14.91014736 -29.52392144 -222.6929244 
20.6371591 -37.23565941 -234.3275325 
25.24663667 -47.03637113 -241.2884862 
16.62553345 -27.07847576 -212.9877416 
19.39783043 -28.27471422 -219.8053947 
23.47601842 -45.23085051 -236.1316526 
46.00146765 -34.73976869 -225.08831 
21.64238919 -28.27786626 -223.1150971 
20.86571097 -29.29245744 -220.8974355 
27.89862193 -41.47895933 -247.9065243 
29.60615906 -46.43942878 -250.1799034 
14.99918978 -32.22612576 -223.1454172 
21.17539989 -29.30017588 -220.6645321 
16.12241429 -40.7787202 -223.1650669 
13.92893187 -28.21709512 -221.0189272 
46.1947151 -48.73430904 -288.1115411 
30.72440937 -30.83160575 -239.1521845 
73.30501199 -38.85796692 -277.2129718 
10.16547225 -28.7963545 -213.5804849 
9.619158399 -28.97741477 -212.3347665 
10.42354644 -31.93884509 -213.5661631 
10.71479705 -30.92115827 -213.8616508 
9.986978328 -29.48153327 -212.8497544 
8.278053872 -27.93269431 -209.6780094 
12.4184042 -32.1381518 -218.1311661 
13.13178429 -35.6296285 -218.6231201 
12.74663192 -28.57607346 -218.9710688 
9.066525971 -28.79379212 -210.6689561 
13.79492172 -30.1128889 -220.9790726 
10.69641527 -27.77336257 -214.6430653 
9.819862829 -29.46637432 -212.6834542 
13.01407186 -44.13770143 -217.2568031 
13.24112117 -27.44057445 -206.6706469 
40.74988599 -33.49491471 -215.3991221 
10.8525584 -29.84246581 -214.7437652 
14.40385864 -36.86027134 -222.5654744 
40.78015095 -34.85303613 -210.7244651 
12.43199397 -28.70304361 -218.5048979 
12.50355655 -30.36939893 -217.4530414 
8.852009051 -27.94819365 -210.5305981 
11.37384472 -38.43625336 -214.4319437 
12.16115547 -37.24375607 -215.8977197 
20.17112452 -31.43043502 -233.4617499 
49.23377803 -28.87839669 -224.9355728 
50.45157234 -35.83937396 -232.804587 
17.9773285 -27.36684636 -215.8568654 
14.42469443 -38.02653679 -222.3714633 
18.60912189 -30.75049609 -225.2183711 
20.36888243 -31.68400088 -232.9492478 
20.66174012 -37.64474319 -234.2175387 
19.63812876 -32.21315892 -232.5095444 
19.30659918 -36.21707245 -231.1669938 
21.34353847 -39.92700701 -235.0074241 
20.5627152 -34.95354054 -234.3407221 
12.60825137 -41.38955523 -216.4759119 
20.40912951 -34.60307025 -234.0532195 
17.70974305 -35.46340167 -228.0366128 
45.64433418 -32.01967483 -221.7025103 
9.593481893 -28.64359082 -212.3981943 
21.5275469 -28.58867492 -221.7728513 
28.52318893 -29.96939627 -235.282564 
23.3770223 -46.92998525 -236.8433222 
66.40250939 -36.56838701 -265.1995586 
19.74605428 -44.8099035 -230.4516527 
47.23145782 -45.26407405 -290.2467548 
9.793662256 -29.03171177 -212.7316023 
10.20108325 -29.09918981 -213.3910692 
16.58726668 -26.68177768 -212.9582778 
9.973278297 -28.7378559 -213.1464121 
41.82897738 -34.90819544 -210.9283671 
12.50920095 -35.2877848 -217.1469469 
16.19803679 -44.97510836 -223.5424984 
9.626641701 -29.21725706 -212.4101197 
10.73575619 -36.83798385 -212.9595507 
12.49070888 -30.19032336 -218.1949332 
9.79373023 -29.25132268 -212.7246913 
12.31341445 -39.63033916 -215.573013 
13.31158435 -27.23489038 -206.7986672 
9.339204078 -29.39533312 -211.0504478 
16.83115924 -28.30100355 -214.4789606 
11.61339568 -34.53107664 -215.8765307 
12.84981137 -38.45023535 -217.3944802 
11.08370524 -28.74415338 -215.8430845 
16.63713932 -27.80668063 -211.6986231 
9.690536186 -32.14080536 -211.9070896 
8.410450282 -28.58940544 -210.2141934 
15.85723357 -42.30058745 -223.2032575 
14.71662355 -38.93708169 -222.3477775 
20.13708987 -32.55008971 -232.2082049 
19.02407464 -31.38697774 -231.4526297 
18.51506134 -26.59437561 -218.0574483 
18.64014237 -26.58962656 -215.419369 
17.67006945 -27.2144292 -215.9272962 
19.74270573 -32.54343655 -232.2265952 
19.36325773 -31.2759795 -231.4650678 
46.58693219 -35.38199005 -224.678004 
46.51433048 -33.56532355 -221.9462702 
17.63100658 -27.83714394 -215.4850026 
16.51608655 -27.20560675 -212.469202 
19.17969037 -26.98749116 -219.8191031 
19.17119415 -35.78750651 -230.8761025 
25.10367551 -48.55187661 -240.8570877 
20.1869873 -30.31850345 -221.3403384 
19.5477557 -38.60365784 -231.1805108 
19.31429162 -31.47117033 -231.0529591 
10.55224108 -28.79594655 -214.1752513 
19.27480188 -40.45085687 -230.3728606 
19.88912917 -28.57460495 -218.8255306 
27.98250201 -42.19857648 -247.7367678 
16.05927945 -31.93234567 -223.8937418 
28.1501371 -38.74185219 -247.4721302 
13.47349261 -29.47458332 -220.2602069 
27.6149225 -38.12887435 -247.6191191 
7.927355951 -28.31640201 -208.8674371 
30.92856948 -42.05115555 -253.6215702 
17.21475204 -45.84623932 -224.8924273 
39.32217615 -46.93514027 -270.6588447 
39.69812503 -45.88250462 -270.402293 
16.53722177 -29.05649019 -226.2791074 
47.65310373 -47.95563561 -291.5076285 
54.0665821 -52.23165196 -303.2817517 
75.04443199 -45.79852464 -276.2560288 
39.90860093 -34.30489476 -254.5166586 
17.07561657 -30.76453521 -226.9188994 
9.443606782 -28.89342844 -211.7919996 
13.42913174 -26.90317645 -206.6884137 
17.51504334 -30.16236793 -228.6017125 
10.58318694 -32.28463286 -213.7100233 
11.08612579 -31.62707859 -214.6569 
11.0572024 -38.05396723 -213.5406022 
18.34534751 -26.62937634 -218.3955611 
16.89968598 -27.52065687 -216.1838344 
16.69956889 -30.51555758 -226.8066291 
16.5934222 -31.33138716 -225.7260026 
16.63871955 -31.7910519 -226.0839555 
10.76180418 -32.01867123 -214.4588977 
17.04860342 -30.25534417 -227.2040201 
22.20882214 -49.06437773 -236.2518223 
15.72461191 -29.24371743 -224.9150892 
16.70697576 -26.95816674 -215.4049226 
16.12095351 -33.46559611 -225.3131554 
22.15416905 -49.62601056 -235.8216199 
16.91288751 -32.23346196 -226.1268655 
17.5380865 -30.90539195 -227.9979381 
17.69990116 -39.79923804 -228.3739561 
17.94736987 -29.63542286 -228.4243745 
16.71387704 -32.44348969 -226.2544236 
13.82605228 -41.08415155 -219.1407073 
16.60216287 -27.17870579 -215.8707745 
16.68792598 -30.98303645 -226.3032026 
15.10486856 -33.24419734 -205.1381405 
12.50128225 -37.71339524 -217.2181438 
8.636197515 -27.41446872 -210.2070792 
9.632754137 -32.52712571 -211.6740734 
17.43736146 -27.94998608 -215.671844 
14.61089269 -35.60420963 -222.5256832 
11.03188242 -28.34752805 -215.2161358 
15.74558228 -44.79858187 -221.3195982 
10.23288241 -31.95187438 -213.3341558 
26.37013488 -45.23459312 -244.1286092 
18.11546461 -31.59913054 -229.58828 
10.80898003 -32.80724959 -213.937226 
49.39973382 -37.84002861 -226.7127572 
28.43938211 -45.97609164 -248.317158 
19.66050694 -27.73505423 -220.7996722 
23.60652287 -35.53594581 -239.9859304 
18.39994256 -31.38358908 -228.9682859 
19.61391368 -34.45714062 -231.8175019 
22.62326669 -38.70321098 -237.3827511 
24.40106308 -35.19067358 -240.6682696 
24.61226246 -42.19545 -240.4768034 
22.84805552 -29.05737154 -224.3237533 
26.0470195 -46.62424247 -242.4677255 
18.87598058 -32.29496 -231.9435606 
19.34699923 -31.02603868 -231.4231102 
20.1711434 -29.69480278 -220.6780006 
15.68741694 -35.90002738 -224.1417824 
46.26166099 -34.05674044 -221.8643887 
48.5244666 -37.04174743 -226.8444318 
45.69658497 -35.38632654 -222.8116353 
9.523723354 -27.78107194 -212.501656 
18.17011626 -37.48334409 -228.1328407 
19.62546574 -28.80641014 -220.8273362 
45.34157859 -34.50797076 -222.3340195 
19.54638287 -28.44837301 -219.4633662 
19.73520286 -41.53964108 -231.5772789 
39.23092397 -45.32031574 -270.6677039 
11.3421222 -37.19368841 -214.4966783 
31.08815735 -40.30288623 -254.401683 
62.14922423 -34.81102539 -256.3588591 
28.58386716 -30.82264823 -233.8640245 
53.18469217 -49.77678146 -302.7687461 
41.06585807 -35.01509606 -260.5789875 
44.25103083 -34.97445656 -211.3321561 
13.13608978 -27.2905394 -206.6891791 
41.3646246 -33.97077247 -214.2519824 
16.66883213 -28.02646362 -212.9414381 
16.15103941 -29.29123353 -225.7531994 
16.26671143 -30.9530073 -225.6152407 
15.97899274 -31.08742267 -225.3030386 
15.81393709 -30.4133719 -224.7525298 
9.415943664 -28.56689709 -211.8961942 
38.31973086 -34.51234596 -214.5022933 
46.89023409 -37.18274683 -222.2778066 
12.35613995 -35.66315161 -216.7828005 
16.41429894 -32.35725947 -225.6651685 
18.14835445 -30.56773343 -229.4191353 
45.74575793 -36.06177363 -211.8723379 
17.35679927 -33.48708114 -229.0431511 
16.67428822 -33.37675733 -225.1128218 
44.35610194 -29.6367564 -219.334082 
11.485097 -35.41764825 -215.2603327 
16.26142906 -30.64383325 -225.7226807 
17.04986759 -29.9878494 -227.224974 
10.14039045 -37.5476595 -212.5932986 
45.34293587 -35.76184467 -220.8266484 
13.12380006 -26.95141601 -206.7776407 
15.98812055 -31.70937783 -224.4933483 
13.23673359 -27.33534685 -206.7951479 
16.20116359 -30.24123708 -225.1118271 
15.78912573 -41.65674406 -223.1969562 
40.31718725 -32.5822581 -215.0178119 
16.27702238 -31.24376474 -224.9731323 
15.55056358 -33.1272179 -223.8685665 
44.60765806 -35.07429616 -211.9061822 
15.44981069 -28.76579556 -223.937721 
15.80179498 -31.64871046 -224.2668044 
11.0641332 -35.28122375 -214.3952574 
21.37029916 -49.6391317 -232.9470509 
16.77930784 -26.20246327 -216.189095 
11.22257548 -38.42995261 -214.1037582 
47.20910858 -37.14653884 -222.0371361 
39.54514279 -33.01219898 -213.6533989 
16.19386221 -30.02276677 -225.3610724 
45.36624609 -33.77797744 -221.8054232 
16.51397483 -30.53282433 -225.3435859 
17.22696743 -43.36657109 -225.9141633 
11.27861855 -32.32260497 -214.980467 
19.77233616 -42.22115466 -230.6510938 
11.01920875 -32.55250683 -214.3560802 
10.31570959 -32.56880612 -212.7172063 
22.09377227 -50.66885416 -235.5079789 
11.61755383 -36.91320156 -214.9016055 
13.36639288 -27.77018155 -206.5890515 
16.88994631 -37.04319465 -225.8481602 
17.62387963 -26.48766251 -217.2234132 
13.15307044 -27.21692731 -206.7650176 
17.25630257 -26.18822901 -215.69849 
22.70582703 -48.67148524 -236.3773028 
11.57757696 -32.41747482 -215.646285 
13.20061287 -26.90496743 -206.6893585 
42.73269279 -35.59642615 -213.1161057 
19.13331293 -37.30678399 -230.7297418 
16.95839195 -35.23508256 -225.4770393 
17.53375242 -42.97009019 -226.5238582 
8.912305283 -28.1812797 -210.4127544 
16.9815145 -31.19365746 -226.669479 
18.50368668 -30.32890199 -229.9870684 
23.16612489 -28.96426361 -225.8128906 
19.12187535 -28.33728616 -220.3751837 
17.1580481 -36.81549371 -226.6386476 
30.59189244 -47.23690989 -251.746069 
18.96814591 -30.43624751 -229.606995 
21.80932226 -29.47418352 -221.0090152 
42.81046917 -31.17698009 -215.7256971 
17.65315434 -32.63479165 -228.3602193 
13.00821772 -27.22344075 -206.8047886 
25.78464759 -37.90282098 -244.0636059 
16.30597981 -36.74980336 -224.9900239 
16.81457816 -34.20931503 -225.9580081 
10.09762092 -32.65081263 -212.6493416 
26.88527259 -39.6973891 -245.7343384 
20.76691182 -40.92285417 -233.302209 
9.4956594 -29.45767619 -212.3083377 
20.52207114 -27.25312475 -224.6769953 
19.97976758 -28.28447195 -221.3261186 
35.20761104 -44.15148521 -261.7610492 
37.06251677 -50.13867758 -265.0536069 
27.01130377 -36.99560125 -247.1315478 
35.31893644 -49.95099079 -260.691747 
17.12229417 -43.7974077 -224.8792057 
22.248749 -41.88693198 -237.1124498 
10.33905417 -30.12676176 -214.2806715 
70.81328404 -41.97582883 -270.6966572 
76.95953649 -47.66210457 -273.5662681 
11.98248243 -31.99090104 -216.1914708 
65.36216306 -36.4004661 -262.6544685 
47.35978346 -52.40507883 -289.5000742 
80.62031999 -45.37145977 -287.0016435 
66.59847314 -39.59084322 -268.319728 
90.98753432 -56.08438922 -278.8937868 
18.15997757 -31.03345186 -229.1449316 
15.06678475 -31.06058248 -222.90322 
17.05611026 -28.80056253 -228.2923684 
19.93023128 -49.12442463 -229.9393565 
15.84326083 -28.35645259 -224.8873573 
15.23818761 -29.69693459 -222.937794 
44.23993379 -35.40064172 -211.3857072 
15.05243509 -30.57647376 -222.8651463 
47.49751111 -35.99240405 -212.7304814 
16.73413135 -28.13399482 -212.9608783 
17.62917131 -31.51244208 -228.7536715 
45.1334378 -34.21916628 -211.924655 
45.63378873 -35.04446486 -212.910642 
15.06326654 -31.69560407 -222.560644 
11.48245994 -35.86461645 -215.2710108 
15.62971585 -39.48322465 -222.9296843 
18.46587654 -46.45124624 -227.5951286 
15.43228506 -28.49295547 -223.8564293 
15.0549322 -31.4214093 -222.9628759 
47.79936088 -35.68078987 -213.3367311 
39.01637506 -32.12768559 -206.2673634 
14.27465816 -29.36012611 -221.4868516 
13.4938363 -27.28262323 -206.9499101 
12.34023073 -35.38218326 -216.9680516 
15.98318403 -36.14362767 -224.115787 
19.7079656 -46.73667292 -230.3987623 
16.47051021 -42.39497843 -224.1746433 
16.1875333 -29.78709827 -225.5470375 
15.72707123 -29.93842931 -224.354357 
45.5630287 -33.86207386 -222.7104151 
16.69992455 -30.2704634 -226.9899071 
45.57585298 -34.25958245 -224.2477686 
19.44731757 -29.12627125 -219.8706698 
17.67393343 -45.9406112 -226.3848571 
15.08826385 -35.08037699 -222.7182398 
19.692705 -39.08243277 -231.0408608 
40.94924258 -33.29068443 -215.5097302 
16.1926476 -26.03855058 -214.7925465 
41.3106042 -32.9030856 -212.9971822 
21.53052383 -38.21725884 -236.2125333 
20.55125676 -37.68367416 -233.1133363 
21.35848806 -35.25832038 -236.0883846 
16.57827544 -28.29840224 -213.0194795 
18.36479103 -43.46043333 -227.8025695 
19.79657922 -28.62561878 -219.6388252 
24.84172169 -35.96876818 -241.4066839 
17.70398862 -30.02810124 -228.9096777 
49.02495169 -37.37684388 -226.6780536 
19.19311463 -48.66964867 -228.3789668 
49.06609876 -35.06786705 -232.452088 
19.33603003 -27.35323172 -221.3334487 
24.91325772 -37.3661487 -242.372657 
32.67185198 -49.19303237 -256.4761648 
33.96617249 -47.4526092 -259.4128948 
24.24254633 -29.43108266 -227.100667 
31.18438035 -42.90693721 -254.036829 
25.44557238 -28.55394412 -228.3960418 
55.54646799 -35.81904577 -245.8905147 
39.82239328 -46.85609328 -270.3383454 
22.84589107 -35.61098845 -237.6594104 
64.96646911 -37.10422474 -259.0064159 
9.06559013 -29.64490005 -211.045462 
68.29571285 -35.69361018 -265.9672739 
30.41543203 -31.95741787 -238.1559667 
29.71505047 -31.81247776 -238.1155655 
80.18282544 -39.47626546 -290.8138336 
50.96203736 -33.58381832 -225.6366713 
13.26164899 -27.65274334 -206.6313543 
13.99452097 -29.08511388 -220.5298193 
44.52005532 -34.96375784 -212.6145569 
19.17062325 -29.23448636 -221.9094408 
54.99855967 -35.76610784 -227.6808879 
14.09692421 -35.02451847 -222.838427 
53.54523584 -34.10440227 -226.4289215 
21.94527436 -43.16011795 -237.4028649 
14.23501804 -30.81221384 -221.0633486 
16.78162559 -28.59855179 -212.8856917 
13.68639633 -34.10620325 -219.7501591 
16.55341565 -28.20550994 -213.2351301 
11.51006486 -28.21281959 -216.0999043 
13.24598276 -26.14014066 -206.6974806 
17.41282583 -36.82338232 -227.0554259 
14.68999999 -38.03350342 -222.3754748 
17.47900276 -26.55096622 -215.4925507 
16.09810616 -26.81997773 -214.4105375 
10.91589181 -28.6745214 -215.1518453 
15.72339763 -42.70306731 -222.7697239 
15.7024613 -31.00943556 -224.7757218 
14.7436871 -29.51253504 -222.6227984 
13.32867285 -26.99924855 -206.6530798 
14.00733414 -29.80231623 -220.8788373 
46.06389485 -35.60183261 -223.6239338 
10.67988646 -35.14937728 -213.3909733 
14.43431701 -38.13064828 -222.6798646 
17.20058929 -27.20033252 -215.1586323 
17.3117938 -27.02905122 -215.4646722 
14.58475732 -30.42200742 -221.9975092 
11.5209502 -34.09488321 -215.0210561 
18.10364255 -44.92749159 -226.9818823 
16.00510916 -28.02138763 -225.8545588 
46.08357237 -35.94050359 -223.3330852 
15.09518585 -28.0023215 -222.9683269 
14.37628304 -30.66729774 -221.5325827 
17.04556961 -40.91901313 -225.4300011 
16.07453252 -39.75809471 -224.1936384 
26.12327411 -43.99145284 -243.5451039 
39.68746537 -33.36928835 -214.9347796 
27.84765066 -39.04478834 -247.8739353 
21.48515951 -28.19619272 -221.4781252 
21.37761881 -29.89695676 -221.2663307 
17.46382078 -29.66313424 -228.3273925 
13.1811891 -36.19784142 -219.0347612 
22.0327431 -36.4528785 -237.8161457 
60.57238038 -29.98656666 -243.0835892 
19.55774372 -28.71061264 -219.6432239 
29.21707379 -37.75458059 -246.9747953 
39.27992231 -44.03966919 -270.7128842 
23.77311724 -37.56082839 -240.8021617 
42.7555559 -37.41560857 -262.9212357 
14.48564867 -29.30793613 -221.5416579 
18.49978495 -46.1346869 -227.9046142 
14.20217346 -38.07462361 -222.6062477 
46.43143149 -37.47725255 -221.6077527 
14.30051436 -41.2880869 -222.3720248 
19.58108647 -28.96867736 -219.8980566 
50.40874197 -34.75897051 -222.6859039 
43.1276473 -34.80109909 -211.088655 
16.19350604 -26.54314809 -214.4877406 
53.17068971 -34.3113975 -226.7468521 
19.11133565 -28.71038432 -221.2145459 
17.23885745 -26.54959014 -216.071687 
14.18774196 -36.8260091 -222.5884358 
14.49546936 -29.91606998 -222.0395806 
19.92552348 -36.22766723 -232.2698158 
16.39430178 -34.24877721 -225.3107069 
22.34368942 -43.19288951 -237.3500164 
21.50938565 -44.48212405 -234.2199895 
17.08368433 -27.47656043 -215.3932925 
17.45706736 -42.12624594 -226.8265706 
20.21142515 -29.94346519 -220.3266214 
19.59481044 -28.15024991 -220.9638619 
21.02622875 -42.64328299 -233.2451571 
14.33823032 -30.36092588 -221.8323288 
20.913577 -39.49875475 -233.6038412 
22.95763218 -43.01234021 -236.8929391 
20.56751531 -29.69887124 -221.4472739 
14.52932486 -41.31033142 -222.337697 
19.19676785 -39.32855054 -230.4524236 
39.79256124 -32.92076999 -214.2001354 
14.4672622 -29.66605518 -221.8184105 
39.94577234 -34.03183718 -210.5186053 
27.02022605 -45.30175494 -245.3170612 
22.96653118 -29.53393833 -223.5267558 
16.94890762 -37.68661231 -225.7357859 
21.14502154 -28.09989696 -221.5628735 
21.73635094 -36.92352449 -237.9682399 
19.24586809 -29.54305337 -222.4176285 
22.89057551 -41.79713096 -236.9795448 
20.78193659 -29.65143387 -220.9745073 
17.39940336 -26.67086281 -215.9887204 
19.71561341 -49.49489702 -229.3275688 
27.78372123 -48.14288729 -245.8882044 
18.78093271 -46.27440227 -228.582478 
74.5488278 -51.91456186 -246.4244415 
15.02232663 -27.34168183 -223.0587784 
61.03131523 -30.48495313 -244.9801037 
24.53604427 -38.69290487 -241.5905178 
32.74437762 -50.02325345 -256.2539599 
17.39246515 -45.92286195 -225.8376422 
14.58310397 -30.71509446 -221.947406 
75.49678555 -49.50233524 -248.1392948 
51.49194245 -29.19212793 -239.6397058 
16.30627463 -28.50141226 -225.9864342 
20.82930443 -45.95916963 -232.6246018 
16.75773751 -28.2834043 -212.9963881 
15.99794835 -42.69307037 -223.1570415 
15.99726232 -31.41669332 -225.3852233 
14.65896628 -30.87503719 -221.687265 
14.97004855 -29.95922842 -222.6577848 
31.14006592 -52.96177388 -253.7558887 
25.84154771 -36.35172755 -243.9271 
15.71237799 -31.11838118 -223.9008897 
18.56867524 -41.07073012 -227.7362318 
21.15582429 -40.77672512 -233.1450433 
16.28454145 -31.65668123 -225.4887717 
46.59309938 -37.44917926 -222.7813625 
16.84249015 -34.6929346 -225.7595455 
16.12854823 -29.02132278 -225.9726129 
94.89387937 -56.94066619 -287.438447 
25.70257179 -38.7231675 -243.4948252 
64.13861676 -35.92875295 -259.553047 
28.35006087 -32.32067757 -237.1304213 
16.54338384 -36.19696767 -225.2247259 
33.42671655 -39.52242312 -259.2888045 
73.70379001 -40.47206185 -279.9420646 
39.09243591 -37.10230397 -262.1719381 
77.9421126 -40.89409314 -287.3763387 
20.16827574 -32.57431577 -232.4189003 
45.98722908 -34.88585415 -213.2258873 
41.96206351 -33.47947747 -212.8732704 
19.37629115 -31.77222915 -231.5456733 
41.8783551 -32.66310435 -213.0888673 
13.27693418 -30.21002293 -219.6578858 
16.89079165 -28.04484734 -212.901417 
16.93314724 -28.4480597 -212.7426586 
21.50394713 -29.21789115 -220.9694393 
39.31045621 -33.77424489 -214.9509028 
12.76715361 -28.58349037 -219.0414349 
45.43652645 -34.94982831 -211.6101363 
19.04543384 -27.58940857 -220.763386 
18.09014524 -41.48082674 -227.1883263 
21.8422013 -39.99379659 -237.694663 
13.70248266 -35.61139546 -219.5371478 
17.17926908 -27.59675867 -215.0942985 
16.86610301 -28.61304494 -212.9198513 
19.29791382 -27.80156976 -221.0348308 
47.00646603 -34.80445278 -212.0576691 
12.82390313 -29.68111528 -218.7863354 
16.16013457 -29.43251151 -225.1434626 
16.96604887 -26.59455033 -215.6197094 
12.65291795 -32.21708418 -218.3116333 
40.63365922 -34.74301149 -211.4552654 
16.24137519 -38.49798446 -224.5390817 
14.76617361 -30.5449937 -222.4540874 
12.71171192 -30.12811101 -218.152162 
14.71898278 -29.77880882 -222.6430834 
20.85772889 -28.25240096 -221.3955638 
18.18845625 -33.76052597 -229.0330005 
43.15612925 -33.06492372 -214.3482 
15.97981782 -30.5109785 -225.3237353 
13.43583574 -29.94676872 -219.9296056 
18.632704 -40.18111402 -228.9088001 
19.05089602 -36.21836876 -230.8550874 
15.70544871 -42.45493442 -223.0283409 
20.30435328 -28.10328951 -221.0596269 
46.36993123 -37.64481783 -221.1628406 
15.54126533 -25.73478659 -213.7576227 
13.59143522 -32.16313137 -219.9384504 
12.76922968 -29.26189859 -219.102821 
19.8864397 -28.49339823 -221.1360268 
20.53687522 -45.81461901 -231.9640429 
14.57865504 -30.18051315 -222.1156864 
16.45233715 -30.40543573 -226.0811495 
21.42118377 -28.7233489 -221.1087498 
14.65042611 -32.15488571 -222.9190236 
22.60719664 -39.93316748 -237.3829252 
24.21557186 -43.55834278 -239.5970721 
48.53107148 -36.69732011 -226.2527131 
15.82752997 -39.60803 -223.5396221 
13.84349879 -32.64555176 -223.3126303 
17.89138677 -45.326464 -227.0113724 
39.70699494 -48.60176679 -271.4790655 
18.55853365 -48.41266234 -227.3725607 
15.42169782 -43.17599112 -221.8332023 
68.96877101 -42.95335949 -262.6342418 
23.28753829 -44.38519544 -237.5891341 
37.11893554 -44.77638259 -266.3339696 
16.57524639 -43.00856347 -224.5236789 
17.13647854 -43.43906158 -225.2213663 
75.28529612 -46.3183342 -274.7768572 
77.12285677 -47.3293928 -275.1245365 
35.45647444 -41.39618141 -263.1228074 
21.61947084 -29.81498996 -221.4059637 
66.897477 -37.78933705 -269.1745363 
48.04412668 -36.25888196 -226.1287156 
31.82959146 -51.25657646 -253.5291309 
14.4446047 -30.95945153 -221.8111818 
18.42645815 -37.06841099 -229.1323341 
14.16956546 -28.92685864 -221.5956918 
40.77664613 -33.34283056 -211.3843961 
23.2623214 -29.23717817 -225.020854 
13.75984433 -29.46581824 -220.4266498 
14.93636304 -29.33688916 -222.4293064 
16.91594745 -28.21315056 -212.8462818 
21.99978457 -35.29983213 -237.6545246 
27.56022992 -42.31390918 -246.591706 
23.33868088 -38.77556921 -238.3675281 
14.12539373 -29.19729431 -221.091407 
16.38193875 -28.06726757 -213.0840519 
17.10004407 -27.06731482 -215.6989477 
19.20281486 -34.30004059 -231.3909978 
16.90138879 -27.11300512 -215.5776093 
12.41756578 -29.67212025 -218.6883016 
16.87632818 -26.67860502 -215.7591643 
16.23331275 -26.71067003 -214.5462589 
17.53838468 -27.43532874 -215.4015822 
16.4024037 -26.40747915 -213.3723383 
16.18964566 -35.25187145 -224.642158 
15.925138 -40.99379357 -222.7651756 
16.64146126 -28.16582807 -213.0243354 
13.61841573 -32.91561058 -219.8835722 
45.55466898 -37.06230246 -221.3639277 
14.01532577 -27.6494052 -221.3372802 
13.75055431 -38.02610728 -221.8503927 
19.65323001 -27.94923084 -222.078783 
17.95756581 -27.26552691 -215.8648956 
22.21935558 -42.54916294 -236.9164522 
17.13939215 -26.68459249 -216.0048423 
17.20537929 -27.43820615 -215.3507531 
13.65948938 -34.53582179 -222.2177566 
20.89913863 -46.78367355 -232.3111083 
16.66899724 -28.51243332 -212.9970862 
16.964928 -26.89332648 -216.2724891 
20.17824323 -27.9776108 -221.1785418 
17.07574132 -42.69927243 -225.2964936 
14.29964879 -39.91585131 -222.1495433 
17.02184023 -25.47425066 -212.3982031 
47.30014682 -37.62972584 -221.4716473 
20.8404631 -36.47447779 -234.09366 
22.80495713 -40.69065945 -237.0052129 
13.5994278 -30.41384386 -219.647684 
20.65355399 -32.49332156 -234.5588093 
15.47119939 -31.77772395 -223.7185576 
45.57668099 -37.42424576 -220.9802432 
17.66512255 -26.94168606 -215.5712291 
16.6445255 -28.2961997 -213.0018173 
15.65378731 -30.4052892 -224.7985543 
18.96358922 -27.73698855 -221.1222406 
17.41801298 -37.17604026 -226.9673748 
13.19860252 -29.7820296 -218.9979364 
12.38144758 -29.845817 -216.1374432 
39.46544818 -32.47973082 -213.8888339 
13.7993375 -31.34874018 -219.6640902 
16.23621895 -25.95524163 -214.5057525 
14.19612445 -30.59676827 -221.013385 
15.44337623 -33.39762494 -223.5062459 
18.92669038 -40.27203539 -229.5620002 
17.31817319 -26.82484756 -215.7669131 
18.747504 -27.65382128 -220.8498845 
17.83394722 -43.17234087 -227.2268662 
13.55797923 -29.71841019 -220.2362862 
16.41394148 -28.58679192 -212.8892177 
26.85644603 -30.23085394 -232.8870873 
56.36160614 -36.0447881 -245.9812944 
50.56270195 -38.23290567 -230.3815752 
43.62360782 -52.79254972 -280.7767636 
27.23666789 -46.05841431 -245.5493168 
39.24906052 -40.64166078 -270.1319315 
69.25773579 -39.78061815 -270.2565547 
93.61318155 -52.14610809 -285.0420422 
16.38689321 -28.30506574 -213.0859921 
67.4536113 -38.92715124 -269.5404128 
33.34049966 -38.17832472 -258.9750172 
25.82285535 -38.36961584 -244.039854 
23.0124737 -49.0882529 -235.9890872 
97.0617727 -52.91181418 -313.1016484 
16.93936271 -27.35841663 -215.4985251 
16.91784614 -26.4338096 -216.6184778 
17.90700606 -27.91518377 -216.00607 
18.11686161 -27.4604911 -215.9528348 
17.06294218 -27.33866038 -215.5714675 
39.57331814 -34.3359567 -212.2642375 
19.99155072 -34.44775548 -233.059362 
42.41797384 -32.41500245 -214.6919553 
43.49516987 -32.4767662 -215.0582594 
16.81874029 -26.57303653 -216.0186414 
22.24567995 -29.82638237 -222.6149812 
45.58242266 -37.04325492 -219.7993006 
16.89362408 -28.00326074 -215.9488671 
14.98090263 -30.54921916 -222.6608118 
16.78052916 -26.98040728 -215.5064505 
15.73504194 -38.32292142 -223.4397892 
13.63011697 -32.89517955 -222.3725388 
42.88343118 -33.24985119 -214.8245294 
12.54965073 -29.9731784 -217.4156025 
22.07979331 -29.78891975 -221.2410405 
12.68029697 -28.93615859 -218.1721703 
39.54042212 -32.94280202 -213.3688347 
13.77720728 -37.3629091 -221.6505704 
16.00918503 -25.88139255 -212.9096635 
47.01725541 -36.15874977 -223.2668696 
43.70646088 -31.17975393 -214.9440871 
17.07257735 -27.70303026 -215.3699379 
20.32010035 -28.29917851 -219.8622384 
18.89706325 -37.29988585 -230.2992533 
22.84566486 -39.82741245 -237.1759462 
17.47255927 -27.59392763 -215.3919283 
16.54834403 -26.18613027 -213.0459922 
16.51051151 -25.68791695 -213.1103206 
43.51916911 -31.44627561 -215.5206296 
16.92784348 -36.49115172 -225.6044451 
46.03807166 -36.74417637 -219.578941 
20.44698923 -34.34236025 -233.8896583 
42.79810323 -31.98440245 -214.9169422 
23.61773632 -41.01862417 -238.9080817 
12.66744163 -29.54333833 -218.2713354 
20.37940816 -28.92719656 -222.4750528 
19.90913469 -33.02675064 -232.3431803 
20.82241735 -43.57932945 -232.963512 
14.58297563 -29.49479993 -222.5882988 
13.66759955 -33.62537061 -219.8553401 
22.80405546 -40.22447308 -237.3399487 
24.44291846 -46.71525609 -239.6839015 
15.3488413 -30.93876979 -222.8767547 
18.62942543 -32.59773995 -229.1133755 
15.51155066 -31.34395451 -223.4198064 
21.67613288 -28.60326822 -221.2664201 
59.18367704 -38.8879943 -243.6317406 
17.31751462 -35.72072408 -227.1750237 
30.77056006 -43.10612821 -252.9923903 
22.07344948 -35.80602161 -238.0422546 
34.94142567 -42.7362651 -261.1948391 
63.27518421 -38.25121452 -259.6341328 
37.59068851 -46.19544952 -267.5607014 
12.83251476 -30.25500068 -218.7391904 
37.07374929 -48.46182471 -265.2422868 
14.97230324 -30.29436352 -222.6926604 
34.48604631 -41.52917651 -260.7627105 
39.79271983 -47.93873726 -269.6423152 
29.66204971 -29.23147318 -236.8590743 
65.1430373 -37.52418977 -264.9937526 
65.39827387 -37.64532074 -263.7731861 
73.48421234 -46.17454171 -277.3259528 
56.68984591 -54.51096082 -307.8264056 
47.08882792 -46.92872617 -291.26381 
92.60200574 -50.07587435 -307.8415258 
16.60101743 -28.63926855 -213.032795 
57.62336533 -36.93615422 -245.9584135 
18.98412028 -31.54651801 -230.2008934 
23.95444691 -41.5668468 -239.6468191 
30.64326437 -47.79277039 -251.6079598 
22.34119209 -44.93436172 -236.9695745 
20.06782543 -43.63253557 -231.2740247 
23.71798371 -44.17368007 -238.7604506 
23.6748162 -28.45352146 -224.9590396 
17.76529774 -42.0849978 -227.2604822 
42.80199871 -32.45185615 -214.555304 
40.09717099 -33.50856945 -214.0568488 
16.64405989 -26.65661939 -215.8190127 
39.4932736 -33.19384518 -214.0340221 
17.69842244 -28.06491722 -215.91059 
16.72304742 -27.41582426 -216.2904685 
17.32800336 -27.47543291 -215.0398792 
17.87310163 -27.09812599 -215.77482 
17.27207117 -27.64245057 -215.1489791 
45.75920461 -37.39382394 -220.4268087 
16.70062826 -26.76834378 -215.7661736 
20.83051576 -29.10686123 -220.2963564 
46.11611383 -36.75588223 -220.2389163 
15.87242063 -34.47343982 -223.8373424 
16.86014444 -26.25013076 -216.0252778 
18.23654333 -38.07870864 -228.4687162 
21.35961549 -29.10336496 -221.268795 
41.29007585 -31.02820973 -215.157697 
19.42382167 -28.89113504 -219.7821159 
18.9281949 -27.909959 -221.0566164 
14.3267606 -26.77255125 -221.4226669 
17.60862366 -26.95102081 -215.5300597 
18.33508359 -43.04859933 -227.8240176 
20.792287 -28.42796677 -220.3319022 
16.82326675 -27.21996667 -215.8538378 
16.9162788 -26.04246982 -215.5381256 
16.96189241 -27.52339863 -215.2541141 
19.82260991 -29.16128612 -220.0772862 
18.97994205 -28.44329362 -221.5257073 
19.11620298 -28.01935469 -220.3083297 
23.45229944 -44.28577448 -238.4757085 
20.20616226 -30.1513433 -221.4451676 
21.40742331 -28.49482169 -221.1085602 
17.38929786 -27.57636884 -215.2512191 
18.70727952 -28.0179308 -221.0362929 
45.47116961 -35.38942715 -221.6290786 
69.2204595 -43.6710119 -261.7283966 
66.19191079 -40.67398096 -263.2916784 
51.67661475 -54.15399755 -298.0706357 
36.51874431 -32.80908585 -253.2789575 
40.29113662 -37.18462671 -263.0304078 
42.13296237 -36.35447272 -261.7312932 
85.49051051 -48.26993356 -303.1991801 
17.33594121 -27.67604738 -215.3251618 
43.79422529 -32.04241694 -215.1117699 
17.48376328 -27.41200895 -215.2723868 
17.92407679 -27.02370047 -215.9069526 
16.5999111 -27.11142391 -215.9830172 
20.5334768 -29.1415129 -220.3268422 
16.82990468 -26.10221203 -215.400161 
16.41778034 -28.64406296 -213.0929377 
13.69599741 -34.9964411 -222.099023 
17.38965154 -27.80387582 -215.3169723 
16.59232225 -26.97870037 -215.8066916 
48.47118297 -36.72704876 -224.5725254 
17.24014934 -26.76489096 -215.4778634 
21.60939102 -49.63430577 -233.8495746 
23.48391553 -28.96152218 -224.9931413 
50.44482574 -37.63517331 -227.3820932 
49.28815419 -37.2046276 -231.052242 
16.54367186 -26.66998361 -215.7996804 
22.44880188 -27.48377584 -219.6801835 
19.29942873 -28.32086103 -219.7972285 
21.97381852 -29.84049504 -221.1654882 
16.75026177 -26.63374849 -215.769758 
19.93925495 -28.8747604 -219.4514131 
39.22755675 -33.12881306 -214.3770925 
23.25752596 -28.36570852 -224.2071045 
21.17140843 -27.84993286 -220.6414191 
46.17414437 -35.94739995 -220.3935942 
48.97563433 -36.05754406 -231.7079866 
19.01489825 -29.94631515 -221.3282362 
16.94046872 -32.21764284 -226.1116793 
16.92791939 -27.07130836 -216.2744642 
16.55568446 -26.8162075 -215.5385626 
19.55508977 -28.47326973 -219.521039 
17.61156963 -28.07523637 -215.9178371 
20.89851781 -28.29186517 -220.9363511 
15.59245852 -34.91567442 -223.157169 
15.92504471 -34.61960418 -223.8125847 
16.22415764 -30.86029252 -225.3516271 
20.05041147 -43.45542858 -231.5948741 
16.78653788 -26.6938162 -215.7808224 
18.4643028 -34.09073707 -229.8565728 
20.61878801 -37.83278706 -233.6371294 
17.28417689 -26.31281853 -216.1634733 
30.92783838 -46.26653624 -252.7640701 
15.5209362 -36.37265618 -223.1492278 
47.38925725 -37.21946535 -222.3360201 
34.67339359 -49.85376004 -260.875547 
15.62072774 -32.00541883 -224.0033183 
20.24295452 -43.46037446 -231.9602883 
29.54340594 -43.49294296 -251.7279114 
19.5828833 -36.0656245 -231.276175 
50.44683828 -30.73551444 -232.6800337 
29.57493245 -47.45677793 -250.9931673 
23.22611834 -37.15717725 -239.0228341 
30.38288606 -43.76213179 -252.4576096 
35.25854119 -47.09331368 -261.345229 
67.14514688 -42.91641225 -261.6142151 
34.77278049 -39.40144158 -262.3904513 
35.26897742 -40.09978299 -263.097109 
29.23989461 -44.03213116 -250.4337167 
22.81115899 -39.59245242 -237.4043439 
90.06636129 -51.22413369 -278.7045537 
66.44418581 -39.88671486 -264.0273719 
38.67262095 -41.85102533 -271.1704434 
20.13712226 -28.82900164 -219.6203176 
50.79543494 -53.97399918 -298.00404 
