# .PCD v0.7 - Point Cloud Data file format
VERSION 0.7
FIELDS x y z
SIZE 8 8 8
TYPE F F F
COUNT 1 1 1
WIDTH 1279
HEIGHT 1
VIEWPOINT 0 0 0 1 0 0 0
POINTS 1279
DATA ascii
15.06494668 2.074751647 39.11834673 
14.46518176 -7.292665434 29.12249097 
14.81704536 -7.389034874 31.23843988 
13.33819796 -4.196216438 28.95418873 
14.84897153 2.42486309 36.86168617 
14.51143675 -9.935199307 33.35042289 
14.31533994 -6.300515388 27.95234395 
14.05222627 -5.882290083 29.85819096 
14.31266313 -7.331371463 30.33681793 
8.438488417 2.095260823 25.09174241 
14.67522541 -8.47211002 37.41805645 
9.254450272 2.352604583 29.36496911 
16.42304791 -7.28049295 41.62194169 
15.04978816 -7.422243406 38.79967753 
15.06118209 -13.63015978 39.54579354 
13.08635034 -6.32057667 22.61253559 
7.345039458 -3.013000737 19.09653691 
6.112963944 -0.983070197 17.37753498 
13.3168424 -6.169748096 22.92948143 
6.969586467 -0.972817327 18.02261094 
5.867441355 -0.256730951 17.18249256 
5.933479695 -0.8212109572 17.36879603 
6.153317611 0.02673485948 18.22766204 
13.31400896 -6.708738245 23.80326163 
14.408534 -10.58278807 29.76883033 
14.48659244 -5.7828961 28.26366919 
13.4068927 -5.851473607 23.81833389 
9.06636766 1.038813474 17.99244901 
7.905498643 1.56343339 17.50304767 
13.6882005 -7.485026427 26.1466378 
14.56608185 -6.472520558 29.30012341 
6.208240173 -0.1799031166 17.75557838 
13.45207832 -4.891864697 26.54133561 
6.340581798 -0.8951334175 17.57537683 
6.47733844 0.2074549109 15.33583708 
6.723937945 -0.3873121539 17.30687043 
14.21226318 -7.885228555 25.72395777 
5.95999379 0.06689365833 15.46707517 
12.93016375 -4.395925671 27.06548267 
15.03146764 -9.758308601 40.1699542 
6.596073747 -0.7410246759 17.63322669 
7.257623833 -1.121118055 17.79712128 
6.203911938 -0.3547807486 17.42462066 
6.342588731 -0.5339003756 17.68814827 
7.252290117 -0.9083399354 17.42470794 
-6.381217457 -1.915534106 32.99328905 
6.047665846 -0.05433396005 18.12187474 
5.618050091 -0.1922623864 17.59267209 
-6.699261509 -1.518058869 33.52411771 
14.89710861 1.953438353 37.85333012 
14.27938532 -6.381522275 27.48273421 
5.50609449 -0.6364983728 16.86681814 
13.94366534 -6.984693244 24.18149088 
13.71244212 3.58427127 35.0103313 
15.29296712 -6.22419544 37.95743891 
15.0847804 -7.463011782 38.06692832 
14.47107198 -5.963586742 28.46520855 
14.92617755 -4.935829224 36.69064427 
14.83261882 -8.775934555 36.21297721 
13.55107014 3.464450476 34.0483418 
14.23285232 -8.63125029 26.28421409 
14.9567662 -10.40262645 33.84033923 
15.05569389 -8.778653946 39.59355508 
5.50144655 -1.06476374 17.63529273 
13.27515016 2.909412142 32.1557916 
5.523107635 -1.023253781 17.41542975 
14.42587923 -5.970344234 30.25287973 
13.68869495 -9.897811516 30.7719688 
14.92021713 -6.775080794 38.08877225 
14.08251049 -6.334986743 24.2943028 
14.85436433 1.633577798 37.36107377 
6.582280291 -0.7001058476 14.62924168 
5.64589926 -1.114099899 17.51334863 
15.01942898 -7.139677994 38.30621634 
15.03508544 1.906397271 37.41240724 
15.21152514 2.48074436 39.24669139 
14.3238658 2.229683847 34.81203012 
15.13659705 -11.25144288 43.15473552 
13.62699324 -5.355954697 28.7701149 
-6.925751038 -1.565653302 33.44431512 
6.684191418 -0.6432619433 17.67235533 
8.100303084 2.587682093 24.27238649 
14.84203317 -5.741301638 41.62310728 
14.9824862 -8.143658066 37.41814621 
6.70135007 -0.8092874857 17.59445508 
14.94429367 -5.428671112 39.10119157 
14.44177962 -7.075379391 26.86176367 
14.88343836 -5.517400424 36.88961778 
-5.521446153 2.750409007 37.40870638 
-3.679432246 2.999034802 32.15122631 
14.78935527 -12.31290279 45.53507863 
5.644356762 -0.5225777686 16.90154435 
5.958804305 -0.1508799133 17.38239534 
14.64679692 -7.553315604 28.7668473 
13.94666632 -6.699222177 24.80986069 
15.09359033 -11.13891847 45.33208936 
13.63043792 2.552617631 35.01322393 
14.91459057 1.50704101 36.73767639 
13.9411649 -6.954783037 24.44929812 
15.07964718 -9.610295217 39.75107681 
-7.21605025 -2.774723639 34.70742579 
6.186849918 -0.5534510359 17.59140451 
15.21904856 -9.125600008 43.04482308 
14.93796123 -7.692157075 37.67423377 
14.03591074 -8.559318536 28.21415076 
15.14450925 -7.086118321 43.22869464 
-25.64477747 5.549280492 51.17456741 
14.17743369 3.426933714 36.16805004 
-1.594806156 4.519850675 38.26496698 
14.32229775 -7.744562184 25.33942308 
-0.4561973151 2.61822559 29.84941909 
-1.04098319 4.782574521 36.60730097 
-2.086133142 3.258477773 43.69665111 
14.95354678 -8.405601101 35.82846302 
-1.843300229 3.838699405 38.79246289 
14.66887539 -3.302108259 47.44887807 
15.05823322 -6.994591036 48.73468266 
0.324347661 2.089640847 17.59481595 
15.01687682 -5.894789165 36.40422314 
-0.08271701642 4.08400965 32.01497029 
14.58728784 -3.127904192 45.64195522 
14.61973534 -2.627550806 45.52079852 
14.99211062 -5.149542918 37.96211338 
15.10231344 -7.140982175 38.92082608 
15.1757902 0.9379780032 41.62303394 
14.61878047 -3.932927895 45.20021558 
14.86003221 -4.83304471 37.4029893 
14.17305411 -2.6020043 43.50910634 
15.08927746 -8.003440858 38.34721148 
-2.077886751 6.135263672 43.12502479 
14.89809619 -2.783949812 43.96297367 
14.29273416 -6.564892485 27.7714571 
6.003650749 -0.4112583995 16.64456658 
6.575132799 -0.5711975352 14.55778775 
6.018038914 -1.068390778 18.73839314 
13.4787376 -6.776093182 22.88947131 
7.783218071 -1.807901717 17.75805693 
5.901415346 0.4401532497 16.53986336 
5.517611481 -0.07181977604 17.54594705 
7.650024466 -1.118929673 17.92070775 
6.132070362 -0.9922617784 17.67251678 
13.67681509 -4.345671468 29.2032554 
5.820503255 0.1366221099 15.86374961 
6.120547823 -0.2041211279 15.28047064 
14.01783645 -6.800386228 23.47151385 
14.36210407 -6.025911604 27.75320467 
6.85462263 -1.107668781 18.1906722 
5.899826095 -0.68438053 17.33247412 
8.26508994 -1.859047353 18.02431883 
14.08135818 -7.636522116 30.51097553 
14.46209618 -6.20663998 28.44858034 
6.700218411 -0.9339081369 17.87405429 
0.4638347299 2.896888743 22.34454502 
15.47372884 -7.308766107 45.01441692 
15.2417706 -10.81753211 43.33033497 
-2.557105712 5.375846978 49.75214812 
14.68677746 -0.05618569492 45.18724497 
-6.609737405 -2.30767594 33.16389975 
15.145828 -0.1714181237 42.47768499 
15.27513182 -6.638730292 41.86933766 
14.58894788 -7.924666131 29.84289725 
14.89764882 1.632293137 39.99714242 
14.98834115 -8.532331109 36.48905748 
-5.343978461 6.808706943 48.5042665 
13.59142754 3.265296255 32.8831856 
13.46450559 3.316912677 33.15738374 
-2.468821152 2.333698942 32.28620552 
15.26316857 -14.70598338 47.07146392 
14.99123352 -8.660683372 38.63908319 
15.02559326 -7.915155401 40.70340389 
14.95674541 -8.05950245 35.59953189 
15.01680798 -5.679676387 28.73477844 
5.907203725 -0.1004369923 17.4988478 
7.206877562 -1.252976683 17.42798912 
6.330585603 -0.2346667707 17.55496154 
8.903872021 -2.462151541 18.53973638 
14.20922545 -8.893606878 33.71832996 
14.19475674 -5.716781521 26.92386604 
15.1686079 -8.080067351 29.33233922 
13.30352299 2.655177192 30.49180372 
6.9898872 -1.772751583 18.58133204 
14.54048696 -5.498526667 27.71499773 
13.97270845 -5.990279298 26.36572383 
6.470934945 0.5136391307 17.33338257 
7.29980548 -2.839863967 19.01603927 
13.99448734 -11.20628366 33.66968726 
14.45033726 -7.391640454 30.01421983 
-14.82544111 3.381966321 33.23553286 
13.31291471 -5.692139519 22.65464882 
14.38627407 -6.992002391 24.96698064 
13.46132096 3.168996701 26.60372237 
14.15929864 -5.282556958 28.81993362 
14.65857893 -6.665390892 29.17191918 
7.322106769 1.265145322 18.92437425 
14.773977 -4.905284212 30.6063824 
6.535415589 -0.4468311067 14.85836282 
14.76727764 0.5683634619 38.00957357 
14.46073661 0.9675677145 38.81788746 
15.25306401 1.343640195 39.22182373 
14.8847374 1.629144577 35.88211552 
-7.129409083 -3.898976747 34.90194033 
5.473992873 -0.07543456859 17.69411135 
14.98657366 -9.106809072 36.16143042 
6.132711882 -0.3500531007 17.56558741 
14.81087288 -8.683592447 35.69856 
15.0679741 -10.23031021 40.09074065 
-28.43820428 6.360982365 54.04973138 
-13.24170197 3.732751378 35.99004577 
-6.749279674 -0.03293280394 33.53872728 
13.9556507 -7.419359188 25.95923468 
14.61027344 -6.584732719 30.13126351 
15.15648322 -2.830145653 42.9081471 
-6.799794411 -2.101701423 32.94421296 
15.11103321 -10.54003218 41.38124987 
14.75779221 -8.547414004 35.16802192 
14.96704135 -10.18072003 38.95800151 
15.08217834 -2.890368384 41.81809745 
-25.15636983 6.139123939 52.29196634 
14.88847201 -6.000915297 35.54182798 
-14.31652585 3.597903382 36.37929909 
14.86958707 -12.11858084 47.167662 
15.15137897 1.906746833 39.70497816 
15.04393176 -0.2329131313 41.31001841 
15.00087336 -8.32327521 35.59846141 
14.91453381 -6.718396332 36.7418407 
15.03563075 -11.03632861 41.50140052 
13.47025741 2.844884688 32.06102332 
-9.964839991 3.383210313 39.06597247 
15.08528073 -10.59380811 43.75127728 
15.38056699 -16.18737228 49.93055942 
14.61474268 -15.27447966 46.32896311 
14.76424581 -7.822422935 38.43374364 
14.95756076 -5.628838625 36.42902792 
0.4916388061 1.564380677 16.93437793 
15.22158149 -4.318878826 42.75547855 
0.2967383395 1.716394248 18.99470405 
0.3425098687 1.245557766 11.36974405 
15.32926635 -12.02906162 45.95871197 
0.3033632979 2.027949734 18.06032999 
14.99084334 -0.6431729647 38.60243473 
14.83600667 1.555438196 35.27896081 
14.90072332 -9.279077112 36.59244067 
14.91462567 -9.536402597 36.23659738 
14.99233352 -11.95397932 39.34343259 
-10.11999193 4.714984552 39.7377691 
15.19012219 -11.64845034 40.13581568 
13.49258679 2.693314813 29.38119876 
14.73459824 -5.355610773 46.89381304 
14.8711724 2.016453647 38.37094632 
14.61630952 2.07602022 34.28575693 
14.79036867 2.357172185 34.1095873 
-3.595787202 2.770227209 32.67656379 
15.06834117 -0.5205391931 39.94768108 
-6.660482381 -2.024391648 32.95093285 
13.35107809 2.561376321 29.62236475 
15.26137949 -3.873207138 40.18188134 
8.069018988 1.520529228 26.60398975 
13.77676461 -7.728911933 31.37755026 
-3.396061192 2.28446023 33.11267156 
15.0407108 -7.502775355 40.3856451 
-6.580946531 2.049377187 37.10241216 
14.23547053 -7.728882099 33.20146449 
14.48675128 -6.5002903 28.53563066 
14.12564895 -6.576190114 26.83938161 
14.60363518 -6.428598964 46.80785774 
15.01162255 -8.392631707 38.79785711 
15.08030783 -8.616631655 41.63694209 
15.00057019 -15.1279761 46.44620026 
14.81803348 1.161419757 36.69346023 
15.08902919 -10.70936107 38.75158335 
14.67282653 0.01139901923 36.37701378 
14.06665103 0.9884618003 35.50171636 
15.15143572 -2.383893694 42.54203795 
15.02411134 -0.5231752056 37.67714695 
15.24623626 -3.921291497 48.67568223 
14.07437664 -6.163469958 32.31987516 
14.96004562 -6.533495012 36.26182914 
15.00317502 1.976686036 34.1688945 
15.3742635 -1.828695791 45.28829259 
14.77397347 1.018266039 35.02176788 
14.90760635 -0.08821657298 36.29326282 
14.60489922 1.416565999 33.67680977 
14.94494658 -10.90224733 38.28463175 
14.94912284 -5.028157204 38.96810198 
14.59326666 -8.434128548 48.08057794 
14.72692244 -7.864580372 31.00139737 
14.97119948 -0.202838648 43.87882599 
15.21887878 1.701752398 38.62491287 
15.35107419 -4.509780281 51.01165969 
14.37735255 -9.611059263 31.88622362 
14.73506909 0.9507447902 38.13227093 
-2.486380674 1.942432183 32.51239871 
15.27912833 -11.94316484 42.51865268 
15.04407049 -0.6033797303 39.18187197 
15.07809581 -5.080995305 41.85421396 
15.07312577 0.1661371174 40.34644364 
15.00506497 -9.948747453 41.98033419 
15.16763597 -7.961713044 37.65217323 
15.21207133 1.227051254 46.10258704 
15.15298689 -12.08317551 44.5797825 
15.24770899 -11.80406317 42.89922469 
15.11828856 -13.21193121 41.68091428 
15.29491403 -6.88682236 40.66951022 
14.95361407 -11.90468527 37.31965929 
15.23567883 -2.728004658 43.96020247 
15.10218796 -11.20940233 36.66036612 
0.3565978756 1.551582974 14.15937175 
14.73049675 -7.462532997 38.25849614 
-0.1364572043 2.71296685 27.6645254 
0.03964086873 2.2795841 23.1282384 
-1.207779634 4.548397145 37.77509217 
15.01010974 -3.266836242 39.1397919 
14.10128739 -5.523396266 30.88104913 
14.91813689 0.213563064 35.67047539 
14.95099498 -0.9724806103 35.96826628 
14.95750742 -4.568296238 39.33566546 
14.66049755 2.107945765 33.0190253 
13.46542286 2.89888729 30.63840704 
14.88074705 0.5078957291 35.51578131 
-6.759640667 -2.831227931 34.4218272 
13.9892978 -7.739317702 32.40334601 
15.14229973 -0.957359048 36.8386798 
14.82339083 0.9696618805 30.89171596 
14.60414939 -5.230981193 47.24902913 
14.80531297 1.756617181 32.52783085 
14.68168241 2.587299886 33.01009578 
13.53859322 3.130000923 32.03514746 
14.8678437 2.439592151 33.57219444 
14.18298791 -7.741585208 32.40939985 
15.05975924 -0.1197653782 33.72960217 
14.67294436 0.8190724632 31.59811646 
14.95406026 0.3844128023 33.10282676 
-6.869682199 -3.210051085 34.00538514 
14.82412969 2.297565672 33.68535152 
15.00887586 -1.705063159 35.61096841 
15.29103304 -3.523032405 38.99670558 
13.4900929 2.818492148 31.31816898 
14.7773625 -8.491674858 34.82607632 
15.08777691 -6.396190409 38.33714792 
14.76467075 0.3804909707 32.277999 
14.60054623 1.600983838 32.40822802 
14.76755991 -8.333135739 34.59893142 
14.65013689 2.351150464 32.66605715 
15.05351152 -0.03972144461 35.52832359 
14.81793768 1.892584869 33.39633724 
15.13674541 -0.3261904299 35.47471695 
14.91208754 0.4618512847 36.72490471 
14.26461576 2.161740845 34.21991791 
15.08888508 -9.038641424 39.62357248 
14.23778116 -7.965799904 32.58920257 
14.85997104 0.3318660337 36.70437337 
14.9475938 -5.370035139 36.46406827 
15.00946685 -6.875608216 36.45588293 
15.0510728 -6.856503504 38.89103393 
14.97805168 -3.048621892 38.13583783 
14.86540189 -9.907529919 35.88975641 
14.26321042 -5.50382978 32.99371189 
15.01006689 0.6903231721 37.53272259 
13.83855048 3.522044028 30.61945186 
14.79909825 -9.458767663 36.9764391 
14.56975459 2.241898648 31.81810662 
14.38972231 -1.048131061 34.00336711 
8.150043604 1.817063115 27.82034539 
14.93063964 -10.56448395 37.84867051 
14.93094251 -0.5721724425 35.46428026 
15.03244307 -0.7366127412 36.25824439 
14.8867568 1.306992407 33.35728297 
14.76058416 1.389711351 32.04344715 
15.03783304 -7.353452179 39.6196562 
15.05614877 -0.451759942 34.7062581 
-6.603895512 -2.700243599 34.84676274 
9.697891109 2.469323073 26.7197781 
15.16813688 -9.007307504 44.03720928 
15.19294557 -6.171055829 38.42557767 
14.74767464 1.17440246 32.19842303 
14.9188098 -0.01875857872 34.18346548 
-12.29211619 4.865828812 41.67213634 
15.27911792 -6.849461584 40.12361925 
15.03730047 -8.072202716 40.49508659 
14.96498589 0.1836457735 34.69473017 
-7.169448906 1.760919526 37.40848523 
15.12671019 -12.35532201 45.70619836 
14.75993759 -10.3594263 38.60870222 
14.85852983 -0.2345963754 34.10174015 
14.96463939 -0.8161095091 37.34513709 
15.11497207 -11.13984648 42.21171878 
13.44663827 2.635874646 28.86732575 
8.919538289 2.34849402 27.92985038 
14.45287832 -10.83198346 48.18771204 
14.79729531 0.7866979136 31.42932342 
14.08262632 -5.210363752 31.52435086 
14.98407494 -0.2336675844 35.50766129 
15.1366485 -1.983607196 39.53438223 
14.63300403 1.627495963 32.66326024 
14.38071594 1.977206371 33.4160538 
15.29045268 0.6459172078 39.76056123 
15.2297282 -3.509354643 42.54518644 
14.84800756 2.061501405 32.72147904 
14.948917 -5.247245361 37.45867308 
14.79330493 0.5642383499 31.82648054 
15.04967397 -3.50446534 37.97697844 
14.85940283 -6.829043121 35.72708465 
15.09722893 -7.496587381 42.35372939 
14.80060355 1.245093136 32.72588601 
14.21722358 -5.502364717 29.57485878 
15.27280602 -9.376697131 38.32649523 
15.18432138 -5.048602009 40.78526147 
14.85509273 -13.67921018 48.38854449 
15.13008215 -2.342840483 43.44700549 
14.80434135 -9.647759671 38.54246525 
14.95279639 -10.00951867 38.31264944 
14.93288867 0.3506561871 42.60132341 
14.82607415 -7.588316614 37.87570871 
15.4642861 -9.56140062 41.41195634 
14.64394117 -3.437249581 45.77228761 
13.88840841 5.262183737 46.13572382 
13.92266098 4.563424261 43.5779648 
15.02342935 -3.85149002 38.17751558 
15.05436507 -13.98339073 50.06136234 
14.97037829 0.2528338407 36.13962513 
14.58623956 -1.268924227 33.38766956 
14.7175227 -0.3256154484 32.25586023 
14.39828979 -1.107033665 33.60181662 
-6.39885733 -1.704139522 33.48040433 
15.04979383 1.787271232 46.97199896 
15.10618087 -2.690619323 34.61798429 
14.19524365 -0.5927169279 32.30695467 
14.03086884 6.010699855 45.43768929 
-6.849205957 -0.7056988761 34.84933445 
14.97042081 -4.943847961 36.2056074 
15.0970923 -2.012143353 40.61477242 
15.01756412 -4.011705405 35.93510208 
14.48218013 0.1104786686 31.18007232 
13.44162091 2.383296493 29.46308919 
15.26215767 -8.929327741 38.20627026 
14.49964546 -0.9170842826 33.89391106 
15.20084651 -1.659794281 42.20867203 
15.55786154 -4.927650427 36.29641116 
14.89949407 -1.464253322 34.61766749 
15.0814065 -4.276013657 42.08587725 
13.50754202 2.656254571 30.30260986 
14.93093935 -5.823710269 34.95643698 
14.95366599 -1.680698242 35.21038928 
15.03868646 -6.172412165 34.79701938 
14.78625621 -0.7974658344 34.05693973 
15.11671751 -1.987754116 41.17613587 
15.11392143 -8.515357933 40.12042498 
15.02097836 -1.402643245 35.37973745 
15.25017355 1.462379004 45.02370311 
14.78798517 -5.062967433 35.50916774 
15.04278394 -8.688877371 41.16182836 
15.10505231 -4.823950969 40.1824128 
15.05440234 -3.968912648 40.55351757 
15.03616031 -3.893369592 35.07723579 
13.53703954 2.85989597 30.36895006 
14.35446684 -0.147881642 43.44241374 
14.83122035 -5.474718484 34.80680135 
15.0812867 -1.896594145 34.88168155 
14.9581035 -12.51440103 49.71498809 
14.96907473 -4.597299768 48.57731383 
14.92278123 -0.4406058254 34.21956966 
14.90820202 -2.307968433 36.75917565 
14.08079593 -6.271205601 31.60011121 
15.15035753 1.494045005 45.60852645 
15.02861788 -0.2698567153 37.76411572 
14.86915347 -1.942814429 47.78683737 
15.18998093 -4.593129552 40.42434344 
14.89300677 -0.4641035911 33.95206725 
14.87654299 -7.639756879 36.03324884 
14.8699366 -3.819337653 34.32803542 
-3.085192609 2.275248888 32.92234009 
14.99143607 -5.012159043 38.42196839 
14.78010507 1.927777019 31.80206166 
14.96459556 -3.485144809 37.33905292 
14.3983805 -4.653686623 32.96104529 
14.99706913 -0.1852311255 31.73190515 
14.78464694 0.6418246544 30.35245723 
15.09121331 -4.73268492 37.02363194 
15.00084175 -4.104549765 38.58989342 
15.05384709 -5.250852219 40.49539597 
15.33502105 -4.43098396 36.21367788 
14.60004451 1.186362489 46.28462226 
14.05355897 -6.80664164 31.53598858 
14.86519646 0.9313015366 34.62380236 
14.93545451 -0.07192931598 33.86946668 
15.07663313 -4.767246191 49.805763 
15.38807221 -3.373397067 40.24461032 
-6.82198071 -1.076625581 34.64626308 
14.90291589 -7.584189101 33.25407527 
14.84856362 -5.847559213 34.36684141 
14.68395061 2.389651964 32.97581502 
14.80875897 2.083451207 32.93682647 
15.12421112 -8.181796002 38.76124401 
15.05292766 0.2818025849 36.56229489 
14.03489133 -6.815228577 31.26266155 
15.32063389 -9.514427485 40.46417523 
15.28652337 -6.508537605 35.97462236 
15.02083471 -6.040583768 38.41293803 
15.00197298 -2.478755449 39.93499608 
14.01648229 -1.148608237 32.13002388 
14.96466214 -5.674280316 34.59302472 
15.0294078 -5.213423985 39.91871105 
14.88866179 -4.297935799 34.97056042 
14.43064961 -7.495675105 33.45843572 
15.03623623 -0.08531021603 33.1056007 
13.92598753 -5.469429111 30.25104924 
15.14476311 -4.422077022 39.01953714 
15.19486076 -9.877919979 41.27781754 
14.94636596 -4.904446522 37.12569578 
13.91296346 5.064890311 44.7925476 
14.98359889 -4.533340984 38.07723407 
14.94746783 -0.1257188388 32.10086228 
15.08343021 -0.6472756966 33.23493417 
15.16295981 -4.766658433 40.73295553 
14.82863138 0.7426602322 34.05284756 
15.10646217 -4.591858102 42.25770942 
15.13242073 -9.640231871 43.56870738 
14.96148864 -1.055055022 35.36787358 
14.88782901 -2.477995744 35.51210579 
14.88220529 -6.196749096 35.98792484 
14.9097362 -5.921380827 38.51285165 
-2.623860856 1.866419632 32.20588906 
14.6125419 -13.17138084 45.14943135 
14.92964993 -4.703386889 35.82741653 
14.77682247 1.340498358 35.58602776 
14.99818393 -8.315932835 37.69810086 
-3.386506452 2.458691204 33.57669785 
14.84432321 0.6042418984 32.90930647 
14.74510456 -9.966261417 42.18667932 
14.96777867 -1.037839648 35.58163031 
15.15670899 -5.597162865 38.35288575 
14.96252906 -4.543899075 37.02440655 
-2.838260703 2.645000713 33.80239502 
-2.901088877 1.870966751 32.74493646 
15.08083528 -4.151502117 39.11965953 
15.04114158 -5.776429364 37.72473179 
15.22934979 -10.25991187 45.019305 
14.3144031 -5.454736147 30.65879749 
15.24635814 -6.484401603 40.5205596 
15.00375368 -5.251537887 35.049895 
13.86311922 4.991991193 46.31138566 
14.53678354 -5.811840725 47.6289666 
14.98889086 -3.570620767 36.48906568 
7.78199818 2.359914277 28.53837939 
15.30594688 1.395231994 44.50375715 
15.1769321 -1.591297196 42.78244628 
13.90551199 4.35465791 42.19744682 
15.00342099 -9.250618775 39.53780977 
14.99101152 -4.95152661 35.64404147 
14.99875186 -0.7616929359 35.92504221 
15.05554511 -2.99471476 34.59177305 
15.07706309 -1.074748779 40.05550081 
14.05190042 4.74823432 42.92971827 
14.75037622 -6.397192224 38.36423834 
14.97226777 -0.749960062 34.86873507 
14.9013424 -5.242633443 34.13829921 
14.88724821 -3.508787444 35.21949437 
14.2622112 6.464975522 48.40049864 
15.32269713 -3.670780708 37.54654227 
15.05747241 -6.770586898 39.31500395 
15.11818174 -5.224114295 37.45326496 
15.00991579 -2.84084462 37.54819449 
15.00433439 -4.548398092 37.84911524 
15.14836251 -3.481382083 40.58833242 
15.03101996 -0.8083196549 37.20814073 
14.07976217 -1.588926459 32.26624872 
14.5591064 -0.6541173165 45.09423787 
14.91307689 0.1899089037 35.38414749 
14.97268789 -0.9775307352 40.48610468 
15.0768142 -4.077588762 37.84143249 
15.11029444 -7.747683551 38.70125459 
15.14109564 -7.486202379 39.33451308 
15.04630332 -0.8865514112 35.26419323 
15.07405148 -0.7292170217 36.552261 
15.18335462 -8.196420739 39.85898775 
14.34881368 -3.006139847 32.6934817 
15.09265411 -5.047221971 40.11906032 
15.06210741 -3.688424591 40.48657295 
15.05407232 -9.394578089 43.94915305 
14.25555181 -5.541906903 31.56847774 
15.07042267 -5.432416226 36.37992949 
15.32675947 -4.468036283 39.95599904 
14.91717684 -6.843694944 35.48088592 
15.11838247 -4.691325165 41.40114214 
15.0553964 -4.852942635 40.83771203 
15.10069788 -9.610339845 44.75970055 
15.20742916 -0.3492554386 37.2522439 
14.84663962 -0.1652466629 35.58175591 
15.1517953 -4.860286631 41.45268593 
15.11730774 -2.392015056 39.41422321 
15.08197733 -2.958689682 35.00235033 
14.59475401 -1.000018044 33.08034787 
14.93496848 0.2176500383 34.86152145 
15.12370507 -2.733415967 34.19702557 
15.15870924 -4.746734824 41.01346152 
14.24406973 6.240833891 46.95781131 
14.64770586 0.04363403471 45.73537426 
15.03148419 -0.7791865286 35.26536501 
15.02121009 -0.4215138661 35.72598741 
14.13254496 -4.044523608 45.27176755 
15.09033033 -2.359525055 41.33745112 
15.03879096 -7.596717119 36.94225257 
14.94877403 -8.051105615 44.59436506 
15.21853679 -7.734483487 39.71016696 
15.07154738 -4.823231151 38.56806522 
15.23436341 -5.571587962 43.81165184 
14.98192774 -7.870412718 43.39317551 
15.00447854 -4.546406431 35.63334133 
-3.075097615 2.017388803 32.6388556 
14.78665733 1.12552636 46.07029881 
15.18784828 -4.252143664 43.27705849 
-6.953708308 -4.079962699 35.45575792 
15.17058519 -0.1667203008 43.30675197 
15.27625522 -6.329607911 44.46712654 
14.95612973 -5.490935001 36.00985179 
15.20455785 -6.84762624 43.30240445 
14.33551999 -1.445635355 44.96209299 
15.04942284 -3.328039646 36.08286094 
13.89543544 5.157497216 47.48337476 
13.80157077 4.117119737 40.66558027 
13.88440672 5.56511979 48.30705502 
15.27344175 3.251396877 46.96168102 
15.26403888 2.911056627 45.01559718 
15.37577908 2.184459097 45.35949095 
14.0343044 5.194274237 45.6652979 
-9.050475494 0.8787088852 54.51142811 
-7.124108451 0.608925673 53.5238411 
15.13693495 -1.636258596 41.72089451 
15.37784969 -8.55067977 43.6864833 
15.15070541 1.050253512 42.23816908 
13.97134263 4.500192626 41.45232037 
15.07069695 -5.706451345 41.06981176 
14.95392907 -6.243475468 38.59389261 
15.20805689 -4.983244705 43.65192149 
14.93742421 -6.547219559 38.37395282 
14.143367 5.53098044 45.54681341 
15.19748638 2.602616381 45.50360669 
14.77624479 -5.658955645 37.08184833 
14.89080626 -6.428685479 36.69153051 
15.11500826 -1.549283965 38.71573836 
14.96247622 -0.9771537296 42.97720176 
14.68846766 -2.569756476 46.29041539 
15.13988199 -1.967308156 39.9600936 
15.30360552 2.380737877 47.22155115 
15.02371789 -2.660389084 34.82936139 
15.03069707 -3.378353755 42.84877352 
14.07797702 4.727626683 44.68158585 
14.96812271 -3.257750982 36.21815228 
15.05730152 -3.325493863 36.85248469 
15.00760949 -3.549906878 35.95492682 
15.06204048 -4.616694789 38.67893136 
14.42486075 -7.899097939 46.05699295 
14.99979355 -6.264660547 38.92127283 
13.76045281 5.331877704 48.09112475 
15.29403389 -0.7293740426 41.12440879 
15.33324955 2.01950845 44.4266182 
14.73366798 -3.487611161 34.44636108 
15.05889258 -8.385452903 39.68541781 
13.95440131 4.383662357 43.73900213 
14.24262178 6.153950607 46.48358656 
15.27800542 3.047655727 47.46064672 
14.86173171 -8.190623995 44.9790955 
15.2718577 -2.756639581 43.48968291 
13.99558339 5.45132479 47.5090716 
15.02104828 -0.01334594226 34.53956223 
15.51117111 -0.3972229518 39.95883566 
15.16069872 -1.396260321 38.53193524 
15.13672187 -2.624951108 37.99956529 
14.98275937 -2.647451514 37.06979797 
15.02510645 -3.272810912 35.67692345 
15.28581006 1.295429843 43.38222083 
14.32595802 5.762025857 47.18387412 
14.72650949 -1.331490868 44.8632168 
15.01816995 -6.597406396 38.24883954 
14.96786541 -7.035499737 44.50466311 
14.99121343 -7.484908006 40.68628618 
15.04518639 -4.41493937 36.21596556 
15.01253618 -3.6241644 38.20180274 
14.98360487 -3.063292838 36.5821578 
15.02368465 -3.41347165 35.31085201 
13.86125085 4.310735763 41.54033727 
15.12799331 -4.93116598 35.34761239 
15.16048088 -0.8478724085 40.14947024 
14.91178493 -5.948145408 37.62229808 
14.57714896 6.450532623 48.44643006 
14.90870258 -5.529799881 35.16357211 
14.88508874 6.031810396 49.26802395 
15.25116497 -6.130628677 45.26253237 
14.95720075 -4.441549992 36.33816133 
15.02526738 -4.757130157 36.49400219 
14.06578311 4.849611403 43.74726614 
15.20700225 -4.470968881 42.04252231 
14.93196204 -6.181369896 39.07054725 
15.02506105 -5.215219654 38.39490534 
14.51069773 -3.950745266 44.34635618 
15.02622978 -4.225922003 37.95434355 
14.96654361 -5.703705931 37.86347837 
15.03419137 -3.704806733 37.98102388 
15.14226576 2.717880225 43.45554701 
15.1654758 2.306021821 42.38105617 
-3.995988164 1.923455591 35.03622226 
-4.357196596 1.970267686 39.46225321 
-4.072293689 2.28843179 36.76017278 
13.84458695 4.066893287 40.33791786 
14.75683244 2.130094164 42.73483731 
15.23754742 1.19632346 43.78707024 
14.00870914 5.070357711 39.38814561 
14.92872126 2.434936079 42.89166584 
13.79967129 3.817083214 38.77862174 
14.98744297 -1.985044284 38.96134084 
15.09870814 2.889393034 42.78743891 
14.59390796 -7.031435879 48.096484 
14.33025667 5.516425848 42.35215891 
-6.455972767 2.548988221 42.59194319 
14.94542054 2.770368962 43.47245143 
-2.927657631 2.384955588 35.70213204 
15.65054429 -7.108803045 44.60742129 
14.98411209 -1.401992259 37.74474801 
13.94793055 4.39058067 40.8158825 
14.49917131 -0.635181743 44.43203465 
15.24734176 1.371796937 48.07963836 
14.14445411 5.05625519 42.53340077 
15.07063539 -6.623611811 41.95654801 
14.06248361 4.9431561 44.20798638 
15.41144528 2.279225645 42.47692077 
15.09938177 3.815227246 42.61923525 
15.24345591 -2.291342272 43.33046229 
13.93449239 4.507381458 42.85659333 
14.80789603 -4.211348044 48.12173161 
15.07862732 -1.512174983 41.21853153 
13.98219974 5.003597784 43.25884632 
14.98068156 -4.955419805 38.78063161 
15.12024957 -6.179051663 41.68172733 
15.13223702 -1.068218164 42.64525549 
15.04874736 2.138721709 42.38927411 
14.93487557 -2.131763494 38.75694584 
15.14878492 2.77266525 45.86679473 
15.0545531 -2.288579848 39.61664017 
14.95515051 -3.135664093 38.63091364 
13.92554429 4.291627319 39.81626872 
15.16331072 0.9054787455 41.24715095 
15.07475427 -3.556511172 39.00100223 
15.05144584 -2.21269711 40.02989401 
15.25790586 2.455017996 41.95777299 
15.11410671 0.9680617925 40.25662762 
14.32140997 -1.770270235 45.78107743 
13.81606222 3.817335686 39.39674698 
15.18692281 3.522806066 46.2685521 
15.29845481 0.982496029 42.08366784 
15.04241332 -2.808915616 38.56285424 
15.38132797 2.253986074 46.51207561 
15.138056 -6.247236126 43.42895697 
15.32322146 2.592764676 43.083328 
14.94650231 2.821034206 43.86723415 
14.98764084 -2.434128956 38.00168746 
15.06156659 -4.742355338 39.03686856 
15.50964695 -5.359500263 50.4328413 
15.09335419 -7.988911559 44.16821856 
15.03419546 -3.957351933 39.04835866 
15.25704324 -2.391281942 37.50972146 
14.38384632 5.730046082 45.38298696 
14.97885913 -1.401689967 38.01251637 
14.38946583 -9.470180758 48.10428382 
15.06475673 -7.357308068 41.0982484 
15.00088824 -8.073594347 43.06116025 
15.24700864 -8.801015377 50.36478138 
14.44917515 0.8869190971 43.53912114 
14.70905097 -2.800439655 43.98294992 
14.81662098 -5.339308315 38.36341067 
15.55140203 1.936548456 46.56483007 
15.0138338 -5.516665427 44.41674464 
15.05300749 -7.462511749 43.18827834 
15.25581184 -4.591055874 41.32234718 
-6.520200861 2.272045242 40.62670621 
14.95632526 -5.859353591 36.89707737 
14.6458481 -3.796450693 46.49132808 
-3.705310035 2.312308701 34.61819295 
-3.671331944 2.047895942 34.59675893 
-2.975047733 2.471241944 34.57001083 
15.23060488 2.088781039 47.14013245 
14.34529159 -2.159843796 43.24434595 
15.14295812 -5.130387757 43.31087851 
-2.997416808 2.937058772 34.54971308 
14.14468397 5.327342718 41.00433862 
14.68230238 -1.740044459 44.10725624 
-2.612377195 2.382991837 34.55489192 
15.32264212 -5.793510563 44.44222064 
15.36303387 2.620784152 44.96680502 
15.1473416 -4.459855657 42.84451967 
-6.993073041 2.218077308 41.41887316 
15.11650914 1.928724964 41.97021065 
-4.030563413 2.84528667 34.98118271 
15.11303171 -5.820796732 43.29417836 
14.95854424 2.313978336 40.63668398 
14.64075911 2.499485269 42.89173897 
-2.938920101 2.311930674 34.50137355 
13.95776208 5.003476728 44.46140195 
13.96008177 4.119316566 39.14476301 
-6.675379277 -2.136167982 35.14131361 
-12.83138671 -0.5304647139 54.93782913 
13.88351684 4.168174927 39.3601468 
15.22705874 1.379201629 43.91695978 
15.25775323 2.164402081 44.85668772 
14.17185165 6.567794908 46.28907046 
14.9991608 -0.4113432882 40.62150515 
-7.968268613 1.476399599 40.71034481 
15.12038723 4.351736321 46.39308362 
14.86373216 -4.004241561 46.0886446 
15.48724048 1.483664061 45.77353594 
14.80961966 2.192715571 43.20111042 
14.80001389 0.5695223978 46.48466117 
15.12411899 2.589674939 46.32893764 
14.65458746 2.083966037 39.91152204 
15.13202353 -3.061542712 43.41859843 
14.6382955 1.731519852 40.01514412 
15.24516709 -1.826865762 39.35028354 
13.88130462 5.383843934 46.83631166 
15.47226184 -5.048967261 50.02144489 
13.81989177 4.787962745 44.74062309 
15.02162535 3.410316849 43.82748893 
14.99548203 1.86572178 47.57020102 
15.01154813 3.159135212 44.20007008 
-7.943422488 1.256502867 41.69397917 
-7.435240977 1.553116135 40.30718699 
-3.520660183 2.790651433 33.93226796 
15.15996406 -3.102159913 42.99746295 
15.02400068 -1.245790675 41.07520428 
13.83964826 4.026547223 41.1384553 
13.83683183 5.166688491 46.82032585 
13.73577509 4.874341358 45.06968249 
15.49323257 -0.5861024596 49.15877272 
-2.613540838 2.870595684 34.10622757 
-6.928360195 2.4820167 40.53979275 
-3.340634738 2.47658091 33.95568716 
14.95998026 0.8048855483 41.5770804 
15.34412321 1.418552886 44.88986031 
15.2010921 3.597245462 45.38354388 
14.99681648 -4.431849027 44.20396685 
15.42948382 -3.534416678 44.87093509 
15.25802316 -5.022355495 42.63168968 
15.09028611 -1.585996825 40.92275007 
14.59325977 1.026844726 44.88763793 
15.1696196 2.852323492 46.91159901 
15.12684257 -3.5777488 41.5499198 
15.34434992 -4.468513137 44.36623609 
14.45045771 0.6822343468 46.59111336 
-6.019309357 1.587773745 38.51296089 
-7.100886515 2.370588483 39.14186134 
13.98334946 5.530089355 48.02993458 
-7.527222232 1.72506223 39.92645926 
14.84518112 -3.23360198 46.42278623 
-3.582797971 2.497781249 34.18031374 
13.77756993 4.56921141 43.039551 
15.27419881 4.617322178 48.36748891 
14.2428234 5.386990054 43.37954551 
15.58823919 1.105472537 46.18735837 
15.20442935 1.812286586 47.59638605 
-6.443732846 2.25176035 38.24976874 
14.2948813 5.76843445 43.70239773 
14.15245616 5.94283027 43.80225321 
15.15166717 1.461183946 43.43344883 
15.51060382 -3.619373211 43.24299091 
15.06769775 -3.839814774 41.30217059 
13.65070143 4.39081408 40.66560186 
15.22728195 1.89099003 48.47414728 
15.1181391 3.834817541 43.86535251 
14.64658445 0.8921738174 46.45845171 
15.20096606 2.051064915 46.78074588 
14.99420678 3.745552915 46.0823277 
14.65198628 2.113020456 40.32198484 
-6.411853944 3.054970304 39.55813642 
15.11938417 1.944698703 42.57755089 
-13.8216543 4.862064306 45.28579596 
15.07037837 -2.114969581 44.21416571 
15.24457138 4.147981796 48.264866 
15.29403309 -5.55166353 43.54088915 
15.10421887 3.969633787 42.56987795 
14.9186449 3.540546611 42.67089898 
15.29847476 -3.54741787 49.06939312 
15.21994655 1.442914197 43.0683594 
15.24055809 1.959190713 44.8811837 
15.6416576 -6.27356807 45.00577189 
15.39575871 2.692170895 48.57474487 
15.08217845 3.341924297 45.34612382 
13.80474075 5.013866024 45.77394402 
15.21154799 3.252051713 48.05422245 
14.71603368 -1.385661499 47.2868126 
14.94413603 1.118398128 44.65628277 
15.14388964 1.703893171 41.69419242 
-3.509042581 2.938686855 33.8855968 
15.24112478 4.024680229 48.6974803 
13.86609687 4.623158943 41.99671877 
-3.11231966 2.327611699 34.36449648 
15.07038028 1.315085329 42.56977288 
15.12626419 3.359372062 43.69943007 
14.45703697 -1.627653039 44.00644046 
-0.6506134966 5.072107653 44.55448631 
15.17571562 -4.28194898 41.72570025 
9.297790707 14.71162908 88.99303722 
15.30308091 -0.4350334799 49.98766685 
-13.95846478 -1.123153855 54.2611777 
-3.225361321 2.06689875 34.18387119 
-3.775769091 2.91186297 34.22918704 
14.2897927 5.56102098 43.85720977 
-2.992739864 2.327193354 34.27713682 
15.46772802 -3.516853107 49.92601222 
13.78402415 4.343130551 44.96206789 
14.91917081 6.002352405 45.38608763 
13.70122498 5.172796063 47.55310121 
-2.30328576 2.371861803 34.31711804 
14.16477674 5.886116141 43.43299578 
15.22344776 4.058188426 44.56277156 
-3.166836175 2.943807585 34.08717814 
17.96032693 1.459692484 54.81989969 
-3.341390876 2.795284331 34.16525642 
13.910795 4.624812088 45.08419683 
15.22663221 2.327722536 46.80275056 
-7.047204324 4.811537647 41.03102683 
15.54954107 -0.9334070427 49.16732619 
15.13630949 2.397897434 42.9069047 
-3.477050741 2.782634132 34.17963162 
14.14254259 5.912223386 44.70890458 
15.76259609 -5.642851646 50.08183577 
14.70294411 -4.183459404 47.39294285 
14.49529788 3.475599949 43.54360264 
-6.361546192 3.778535632 40.74450041 
-0.3971351709 5.15643762 45.73068633 
-3.70541633 2.200163131 34.21804096 
15.60412711 1.440675275 48.12338358 
-0.4573851516 5.134350871 48.90607265 
14.77480299 -2.145314018 46.25678643 
15.30584579 -3.319289204 44.08404365 
24.81997279 16.15372477 135.5730472 
14.69464419 -3.172515653 44.49033171 
19.64258961 17.65151827 124.3852319 
14.86689019 -3.072899692 45.24377407 
25.61707579 10.84073794 163.2562756 
21.24294293 10.25402178 152.7743905 
22.587263 11.08244412 144.1484137 
29.17890672 11.10002716 166.1031888 
26.99904612 9.008327806 166.5338688 
2.448898401 11.20047798 62.71493186 
7.452268318 2.287691079 111.8719739 
19.22740132 4.389524967 159.6624952 
29.34496523 17.78358819 166.4229896 
29.45823326 16.22188282 165.3670723 
31.30901361 18.11644603 168.9860388 
8.850669182 4.643262346 136.4226151 
23.97607258 7.375337775 159.5411594 
17.9996599 5.369913515 149.8496566 
32.59519803 16.36333129 172.6967425 
19.30298366 6.334892057 150.917359 
21.01288723 8.471074065 152.6155146 
11.3252883 6.791230736 136.3822312 
17.83679762 8.89015536 150.8741683 
26.0055095 16.75601547 163.4699069 
28.22662765 13.61129456 168.0230308 
21.44679287 15.63127792 152.836506 
28.63056113 9.180741879 165.0036644 
10.9220488 4.283147321 142.5466983 
29.0228763 13.42651057 165.6901649 
24.07753895 14.13954638 159.961774 
21.44672107 17.68912406 153.1419855 
21.40331119 14.45834275 153.027065 
12.40338444 9.746226186 145.2918371 
24.0073807 12.12349912 158.8719777 
15.89334491 8.407993843 147.5608458 
13.53145159 7.723690709 141.7822977 
19.95051935 13.69761564 154.7709454 
18.12732048 13.19451982 151.9235335 
19.42485246 9.227309081 152.2114423 
18.70258092 10.83720874 155.5372505 
21.25393977 11.33321965 153.0611072 
14.45553531 9.678951204 147.3368352 
19.65613479 10.91463993 152.9690443 
20.06139617 15.52458938 154.1571847 
26.49921669 21.36858668 165.4952862 
20.20025481 16.27897833 151.6663364 
11.33086525 10.16620493 147.4613072 
23.9201756 10.78467885 159.9971462 
20.67436682 8.078596917 167.5395427 
14.80921125 -1.232045795 45.99554215 
15.24966541 4.809961887 48.21238525 
15.30009715 1.024424517 46.71723683 
47.27947567 7.710173717 109.9007565 
15.35272536 -5.707214127 50.05223182 
21.27117717 7.106018104 154.4901847 
23.99871237 19.20013686 140.7025879 
28.12971118 17.9089867 167.0442657 
10.64940035 6.278564816 139.4763402 
21.03327064 5.6373135 153.6213828 
21.92052399 6.85854257 153.4512056 
26.04685712 19.64424228 163.9775302 
19.80394042 17.9419821 153.1987984 
17.79827968 18.58585427 148.0093268 
10.22654928 8.029501308 135.4031668 
7.483639699 6.005073485 147.129468 
29.56261152 14.57330053 166.6085113 
24.32146303 16.34711056 161.0915757 
16.28782522 11.10893332 148.1137545 
21.47838255 16.60493778 153.5505413 
9.626877694 14.48244419 91.1117796 
-2.638776539 9.347150858 51.79703718 
18.14609541 17.58725551 151.3812887 
16.1200598 12.73104338 148.7651195 
16.08663853 10.04046702 147.5618845 
14.18130065 14.27890184 143.9916291 
18.03938808 14.74032528 149.9710846 
16.70883107 14.74894643 151.7571776 
10.05054336 6.724439421 134.3484737 
21.15291298 13.25323052 151.8788892 
14.21586034 13.45095521 144.4815145 
20.12269413 19.90763938 153.8351101 
22.84128061 10.60666944 157.7043968 
13.6098795 10.29094074 139.0519705 
20.95270047 5.719575551 163.0029674 
14.17217858 12.27021237 146.0254432 
16.52280386 17.37916163 151.1244759 
14.4200649 16.84270764 147.7372663 
12.9371631 11.61943092 148.8045758 
11.51628611 11.89719781 149.0864838 
146.9918719 21.92583994 405.9560273 
22.3942829 24.88454132 177.7894254 
13.04095221 9.583228786 142.8516185 
13.85444237 14.53966986 149.2433464 
18.92613233 17.17943485 168.4334649 
53.77006267 10.06068706 122.5389081 
21.64304441 20.01415424 153.0819464 
27.94066862 15.78643916 167.5915529 
22.6058099 12.6336055 156.2311449 
8.8664837 7.263874176 144.8279785 
147.9570697 20.33111167 380.9576051 
31.2546702 12.47512702 169.7071238 
9.646443995 4.565675957 163.6974484 
17.17530578 7.048729079 172.3178496 
11.2652397 12.93002858 145.2878633 
12.24617129 13.90980648 143.3750082 
14.37932812 21.3932341 148.4230183 
13.8048829 17.33900465 140.5939054 
17.83598692 11.42579054 148.9701881 
14.27361999 18.62398827 144.2293092 
17.36584253 19.69211853 157.2193938 
141.157964 29.27529723 430.4589486 
11.36626736 16.81653364 146.173585 
26.03838291 15.30111195 164.7827139 
27.66685126 11.30107418 166.9537576 
23.78672247 15.12209123 158.7782973 
10.26871785 10.19344687 162.7851644 
29.63866302 15.55009159 166.8050596 
22.72057174 19.5428049 159.6555117 
26.92454841 17.69417394 165.5551732 
9.640524106 9.683050462 138.5100601 
143.5108901 27.34560783 408.8745123 
35.62246859 17.79829904 178.5897925 
10.85368106 13.45931277 141.2087725 
147.3009964 19.43041982 365.6411098 
29.40519573 12.01887821 165.8567782 
10.22787032 7.416587123 136.0468022 
144.3456712 28.52258723 424.3482621 
12.20184228 18.24086354 142.4671324 
11.97559211 11.94200771 137.5055352 
9.452133455 11.48419438 152.4518651 
133.7700287 25.68130018 447.300484 
135.0862721 39.49102048 433.9643139 
143.5295907 30.15794234 444.3707576 
140.8323575 31.41503406 458.4168915 
133.6608329 24.50572454 432.4895797 
138.814068 22.87272356 410.8577829 
143.130463 40.17531872 441.2008377 
18.85561871 16.35524819 155.6416915 
140.4376825 44.3622675 465.5504251 
142.2886251 39.18110552 472.8235009 
137.8464327 32.66273315 471.3563548 
145.2476372 33.55151515 440.7629213 
12.73169243 16.06181377 146.1127131 
140.4605308 37.53325653 450.648964 
164.3643612 28.58479991 372.3754349 
164.857239 24.22352982 374.6028294 
169.5476275 20.02284291 385.4090067 
2.491708648 5.230905198 136.3862659 
28.6915111 20.45415004 170.4679197 
14.88077926 21.19443616 138.1235873 
156.4872377 34.31255752 385.5450555 
155.5948806 31.25396563 422.8067545 
143.5416774 22.55625403 410.5898872 
12.95426967 20.6590512 149.4478869 
10.72178878 5.565812246 140.2292704 
26.29625967 7.793160073 167.3582035 
153.1951544 27.75164851 419.7437569 
26.30180646 19.06919511 135.4027808 
9.458944675 4.601025212 136.5853593 
6.37688278 4.791900439 139.5455664 
29.07193527 18.71180334 163.8072482 
10.63214313 11.80856632 138.973728 
15.37108793 21.44908233 148.3644223 
146.0066987 33.03611729 400.2603256 
18.77178614 17.6031896 162.2699241 
153.2437653 40.84941206 453.2620045 
144.6639942 24.73567934 441.3778587 
15.09161767 16.0598319 149.4900988 
141.2922564 45.07135269 482.2929624 
3.507418042 11.84264979 72.45038137 
39.36089725 18.56981526 152.2480804 
53.88564215 21.95668036 164.3118653 
159.6675126 24.44084238 375.6376378 
159.6602357 19.75933555 376.9030265 
212.4428134 13.86703734 472.2641203 
146.8964037 37.64535229 401.3422467 
0.4759449654 9.41898899 142.3117554 
149.6664416 21.2322154 398.4040383 
147.0544892 39.30040258 387.5886843 
157.3202515 27.94970043 368.5775808 
210.2095846 -21.60266335 483.5915781 
12.26719385 16.42746036 140.8043002 
150.6200429 29.4950377 380.4822634 
146.104712 25.61395466 388.6919658 
149.9487405 30.28968995 395.8014233 
215.0499692 -21.61827114 474.538235 
17.33107709 22.2418116 151.4199091 
157.2666593 22.8025022 352.5993248 
167.5231789 23.67283775 363.4628346 
164.7481155 31.59626543 352.4249935 
162.6887214 24.20257171 375.4178452 
162.718931 32.50808095 368.1376728 
24.17119197 17.35659959 160.1454081 
18.97422038 16.10219494 151.6475999 
13.07233513 13.17859254 143.7584766 
135.7302806 31.07965322 452.3106105 
140.8883799 36.30438267 400.9170614 
135.2836355 29.73953915 435.0586455 
147.8304733 32.53385975 419.3070425 
11.607544 17.99492768 148.7549782 
150.9911812 33.80161593 441.1791186 
161.8399381 25.73461343 394.9436415 
150.8685077 25.04633219 380.8748138 
204.2377831 13.31229938 446.512878 
13.84025241 10.75417845 136.8794132 
10.9149742 14.90394 141.8286242 
153.3334468 39.03595583 385.1452864 
14.04242708 22.11500524 144.2140172 
133.8822525 46.08262147 479.776615 
139.4239044 33.71336937 485.8291674 
11.45140458 14.76424476 147.7450141 
132.4092287 26.41300781 458.0733076 
139.2930756 46.67858807 486.4019097 
16.25107674 11.71749696 146.8367067 
133.3508649 51.13781276 479.8166813 
142.4164277 30.8209994 520.9053344 
135.7788299 41.98144446 488.8981738 
134.1796912 53.56742048 503.0144654 
38.40902023 22.96713128 156.855664 
8.62277709 5.464472855 135.8783273 
13.20766292 10.93860061 135.6426195 
165.6783941 19.32700335 368.3118675 
151.1904254 25.64928212 391.7187637 
183.1913415 16.00873952 412.4041337 
219.430818 -41.62603813 473.1364927 
217.1493769 -26.21474931 474.7071332 
26.54809102 13.176 164.7623458 
196.0080486 -32.2412455 437.9321515 
199.1389059 8.441282395 467.9507268 
220.9891866 -38.06432341 498.0772288 
200.2527091 3.998246347 485.7299316 
150.5365543 35.31009959 395.4611966 
225.2215829 -32.94822918 486.5080689 
218.4789095 8.177384752 456.5836146 
207.7497684 -29.98635531 459.9547826 
195.4541708 9.177074075 480.7067041 
208.3560933 7.821127692 500.6199114 
198.8203963 19.50312762 487.6079757 
201.8323859 15.44385618 494.8431453 
0.4915952654 12.64464344 148.1029479 
213.9877865 14.26744287 489.5971702 
176.8923136 37.93770427 373.5598783 
10.58812994 9.645220638 149.1104478 
24.67947598 20.84417552 137.9734727 
11.82424112 5.756058687 138.8216647 
5.951779927 4.709528582 149.9886134 
204.8746802 14.05162169 481.541061 
153.3693588 24.13250823 368.3644798 
147.178003 43.18669035 511.7417132 
144.8449155 19.48519093 541.4948119 
-15.28378216 3.899212872 113.8620633 
-15.53087143 3.874179397 113.2502888 
-13.97573003 4.835635968 113.0059199 
-15.12127705 5.515605537 113.7675712 
31.89479909 19.35997481 169.250345 
24.72737342 17.24441345 139.2196517 
2.969582817 7.876490053 108.140669 
33.54233149 11.87350607 178.4662863 
39.20850229 23.80722276 155.8897531 
170.2303449 38.78404967 336.7228045 
6.755429405 6.81349133 136.1203461 
6.196116425 6.457652251 137.5781876 
172.8613983 35.56632754 346.6860192 
228.0517086 -14.75250967 426.7385034 
18.32174544 15.13099427 149.2020329 
224.2117978 -29.28751227 432.3280173 
13.6146543 19.31019558 138.6469565 
222.2033162 3.262307158 474.7881356 
206.8361032 -26.91319888 490.3980756 
206.3933478 8.756716587 461.0735662 
210.5874433 3.807424106 480.5499316 
225.9527386 -28.58311155 507.1925245 
212.259439 -1.198125192 484.3134432 
216.496006 -16.9699712 485.9948325 
216.0223667 8.992022094 490.6615169 
211.2596109 -31.45355779 477.1964829 
212.0540137 -37.20899778 490.912368 
218.037789 -21.63019407 470.5706145 
10.79683759 17.65540728 139.8550213 
218.3863281 -28.01508656 501.5100661 
17.76534964 21.70549229 149.0472569 
163.6163695 32.3955947 364.9101915 
148.8352956 37.45021161 368.4573404 
217.5847734 -6.365852253 472.3476593 
208.724368 8.482277973 457.2051278 
15.15678214 19.03114226 136.6882651 
163.2764856 19.7806154 377.9468629 
203.5375595 16.51826529 445.4792517 
195.0121758 31.9148018 422.4324313 
243.2257888 -11.36745216 451.312058 
21.28970956 5.084502813 158.3708361 
153.2651026 28.78551259 374.3797448 
219.1321806 8.395421605 468.841513 
217.87047 -16.61016871 479.7309326 
210.310021 -22.33069004 497.9049567 
205.2990861 -16.62510969 500.2478893 
9.474004842 14.50718114 151.6795143 
6.664184942 13.83506134 154.3406542 
146.8403842 32.69804139 547.6101549 
143.450398 25.9643724 538.8367604 
138.3437362 52.26122024 539.3572163 
135.518698 23.22983369 489.9526853 
137.5284077 20.51701815 536.0250181 
-14.3898957 3.189668638 112.8493934 
-15.76079769 4.630958117 113.1048913 
40.22688981 22.07923949 155.7122376 
-15.99508255 10.89223272 113.136428 
16.74154798 4.061917886 152.143134 
13.41292809 4.969101227 136.2935435 
30.43321613 20.2120932 169.2180762 
16.17201992 5.514316703 147.6458563 
17.3976514 16.15524819 145.3738466 
172.5288961 23.85380809 367.8893469 
250.2065803 -26.0412677 451.1682216 
180.209231 33.25616465 375.2062471 
246.8700461 -12.81646037 467.4575116 
180.0055125 29.25489176 381.8233219 
233.7658369 -25.97756064 448.8511271 
212.0011338 -35.52387897 461.3835007 
234.4700988 -34.04178955 441.0788 
207.4452447 3.881771861 455.7986228 
14.71568551 13.22745797 144.2050019 
245.1690085 -34.42389692 443.8691572 
218.299202 -6.746261694 469.8327761 
165.981627 18.92423489 363.2964476 
209.1239002 3.888052386 489.6468872 
211.7989289 -41.00953531 479.2593091 
201.6146316 -40.02004449 469.4794151 
217.8925354 -21.15039295 466.3604892 
210.2806753 -47.91564805 489.1695307 
222.6524234 -1.920686821 471.9183883 
222.6786738 -34.15526422 511.3465083 
24.98172552 20.9687255 163.5150699 
11.1245383 15.88304621 143.6541224 
181.0389514 33.14644582 371.3128134 
215.675327 13.28883278 460.6442602 
204.8079357 -31.61853039 487.1037803 
163.3082219 31.81569576 356.0244524 
231.3012833 -30.760993 448.596036 
150.4393931 29.01383985 372.8717966 
208.6004041 -11.21265005 478.5608206 
192.3044753 15.67630804 479.2327228 
201.1183954 -15.99901265 477.0940881 
218.919646 -1.589060721 478.5736471 
162.3600339 30.54706667 378.4172366 
207.5863253 -15.74443382 477.0168875 
205.046265 -1.029979689 481.8923947 
